ply
format ascii 1.0
comment VCGLIB generated
element vertex 808
property float x
property float y
property float z
property float nx
property float ny
property float nz
element face 0
property list uchar int vertex_indices
end_header
-0.163296 -0.013071 0.768669 0.314323 -0.446747 -0.837627 
-0.161882 -0.01308 0.769165 0.393414 -0.422491 -0.816533 
-0.160491 -0.01309 0.769776 0.416007 -0.407334 -0.813029 
-0.159121 -0.013103 0.770503 0.330036 -0.419909 -0.845431 
-0.157709 -0.013112 0.771039 0.274268 -0.42804 -0.861138 
-0.156295 -0.013121 0.771576 0.319491 -0.424704 -0.847084 
-0.154864 -0.013129 0.772037 0.341681 -0.396297 -0.852176 
-0.15347 -0.01314 0.772691 0.429021 -0.341118 -0.836409 
-0.152118 -0.013155 0.773578 0.536838 -0.26634 -0.800542 
-0.150779 -0.013171 0.774544 0.559933 -0.243723 -0.79188 
-0.149428 -0.013187 0.775474 0.649744 -0.254773 -0.716186 
-0.148209 -0.013215 0.777106 0.711326 -0.206655 -0.671795 
-0.146924 -0.013237 0.778432 0.587051 -0.178703 -0.78958 
-0.145526 -0.01325 0.779176 0.450534 -0.135213 -0.88246 
-0.144103 -0.013261 0.779803 0.468407 -0.13148 -0.873675 
-0.142693 -0.013273 0.780509 0.431588 -0.147365 -0.889953 
-0.141301 -0.013287 0.781335 0.296982 -0.176463 -0.938436 
-0.139786 -0.013289 0.781493 0.278691 -0.221428 -0.934506 
-0.13832 -0.013297 0.781926 0.300459 -0.278583 -0.912204 
-0.136879 -0.013307 0.782518 0.354024 -0.36165 -0.862483 
-0.13543 -0.013316 0.783071 0.443974 -0.286766 -0.848913 
-0.102484 -0.010818 0.636153 -0.0455847 0.263904 -0.963471 
-0.101207 -0.010816 0.636023 -0.0759071 0.290346 -0.953906 
-0.09993 -0.010813 0.635892 -0.0576616 0.33604 -0.940081 
-0.098659 -0.010812 0.635788 0.00923162 0.280115 -0.959922 
-0.097415 -0.010813 0.635866 0.0918278 0.22932 -0.96901 
-0.096187 -0.010816 0.636049 0.082133 0.179877 -0.980254 
-0.094939 -0.010817 0.636101 0.00620356 0.124978 -0.99214 
-0.093671 -0.010816 0.636023 -0.0557766 0.0584584 -0.996731 
-0.092389 -0.010813 0.63584 0.029153 -0.010685 -0.999518 
-0.091141 -0.010813 0.635892 0.162749 -0.0708373 -0.984121 
-0.089911 -0.010817 0.636075 0.25835 -0.219783 -0.940718 
-0.088732 -0.010826 0.636623 0.47013 -0.34459 -0.812549 
-0.087662 -0.010849 0.637985 0.6659 -0.459331 -0.587872 
-0.086587 -0.010872 0.639353 0.601819 -0.56149 -0.567928 
-0.085497 -0.010894 0.640648 0.605145 -0.580987 -0.544293 
-0.084375 -0.010913 0.641735 0.643964 -0.594598 -0.481418 
-0.083384 -0.010949 0.643867 0.735363 -0.614265 -0.286217 
-0.082479 -0.010998 0.64674 0.648416 -0.589908 -0.481212 
-0.081365 -0.01102 0.648038 0.480209 -0.479582 -0.734439 
-0.080156 -0.01103 0.648607 0.361395 -0.493563 -0.791069 
-0.078938 -0.011038 0.649123 0.357065 -0.474176 -0.804774 
-0.077702 -0.011045 0.649503 0.38823 -0.464695 -0.795824 
-0.076509 -0.011058 0.650266 0.508014 -0.437262 -0.742108 
-0.075348 -0.011076 0.651331 0.548321 -0.393838 -0.737723 
-0.074159 -0.01109 0.652181 0.596228 -0.327861 -0.732816 
-0.073015 -0.011112 0.653472 0.676665 -0.246379 -0.693846 
-0.071855 -0.011133 0.654659 0.702259 -0.269753 -0.658836 
-0.070711 -0.011156 0.656044 0.780728 -0.374648 -0.500102 
-0.069672 -0.011197 0.658468 0.79679 -0.501974 -0.336374 
-0.068594 -0.011234 0.6606 0.669763 -0.527456 -0.522692 
-0.06743 -0.011257 0.661982 0.510682 -0.468052 -0.721201 
-0.066188 -0.011268 0.662632 0.418289 -0.478186 -0.772252 
-0.06494 -0.011279 0.663256 0.316488 -0.44403 -0.838255 
-0.063669 -0.011286 0.663653 0.206421 -0.430527 -0.878656 
-0.062377 -0.011289 0.663852 0.146298 -0.41164 -0.899528 
-0.061092 -0.011294 0.664137 0.11293 -0.396 -0.91128 
-0.059791 -0.011296 0.66425 0.0739641 -0.386959 -0.919126 
-0.05849 -0.011298 0.664364 0.0970789 -0.372704 -0.922858 
-0.05719 -0.0113 0.664507 0.136107 -0.369216 -0.919323 
-0.055902 -0.011305 0.664791 0.132334 -0.384785 -0.91347 
-0.05461 -0.011309 0.665048 0.0630653 -0.417651 -0.906416 
-0.053295 -0.011309 0.66502 0.0788955 -0.449613 -0.889733 
-0.05199 -0.011311 0.665134 0.161601 -0.492114 -0.8554 
-0.050727 -0.011322 0.665791 0.22678 -0.544169 -0.807744 
-0.049451 -0.011331 0.666305 0.237627 -0.59496 -0.767826 
-0.048162 -0.011337 0.666678 0.227606 -0.631452 -0.741258 
-0.046872 -0.011343 0.667051 0.215154 -0.649919 -0.728913 
-0.04558 -0.01135 0.667424 0.170965 -0.662806 -0.729012 
-0.044279 -0.011354 0.667683 0.187336 -0.64948 -0.73694 
-0.04299 -0.011362 0.668143 0.194514 -0.615413 -0.763827 
-0.041687 -0.011366 0.668402 0.195598 -0.567765 -0.799615 
-0.040392 -0.011373 0.668806 0.149911 -0.470705 -0.869462 
-0.039081 -0.011376 0.668979 0.0971241 -0.479589 -0.872102 
-0.037765 -0.011378 0.669066 -0.0405292 -0.430893 -0.901492 
-0.036433 -0.011374 0.668864 -0.118252 -0.393585 -0.911651 
-0.035102 -0.011371 0.668662 -0.00461412 -0.356872 -0.934142 
-0.033778 -0.01137 0.668604 0.0643882 -0.287985 -0.955468 
-0.032462 -0.011371 0.66869 0.102729 -0.22874 -0.968052 
-0.031145 -0.011372 0.668748 0.0782743 -0.183262 -0.979943 
-0.029825 -0.011373 0.668777 -0.013875 -0.193184 -0.981064 
-0.028499 -0.01137 0.668633 -0.104438 -0.228641 -0.967893 
-0.027174 -0.011368 0.668518 -0.147091 -0.265474 -0.952831 
-0.025847 -0.011365 0.668345 -0.177587 -0.286049 -0.941615 
-0.024516 -0.01136 0.668028 -0.221974 -0.283129 -0.933041 
-0.023185 -0.011354 0.667683 -0.199628 -0.299319 -0.933036 
-0.021854 -0.011348 0.667309 -0.119602 -0.364639 -0.923436 
-0.020534 -0.011347 0.667252 -0.045792 -0.463233 -0.885053 
-0.019214 -0.011345 0.667166 -0.0370183 -0.57723 -0.815742 
-0.017894 -0.011343 0.667051 -0.0403534 -0.624636 -0.779873 
-0.016576 -0.011343 0.667022 -0.0516131 -0.621316 -0.781859 
-0.015254 -0.011339 0.666821 -0.0817282 -0.643202 -0.761322 
-0.446421 -0.014566 0.767452 0.10836 -0.10051 -0.989018 
-0.444773 -0.014562 0.767224 0.0791397 -0.0108478 -0.996805 
-0.443368 -0.014565 0.767414 0.422784 0.336709 -0.841357 
-0.442291 -0.01458 0.768174 0.498586 0.102688 -0.860737 
-0.441189 -0.014593 0.768898 0.569622 -0.0229697 -0.821586 
-0.402832 -0.014634 0.771039 0.338629 -0.499332 -0.797495 
-0.40143 -0.014639 0.771269 0.309694 -0.472408 -0.825179 
-0.400086 -0.014645 0.771615 0.260158 -0.387892 -0.884227 
-0.39884 -0.014655 0.772153 0.393593 -0.310775 -0.865161 
-0.397632 -0.014667 0.772768 0.460626 -0.24694 -0.852551 
-0.396482 -0.014681 0.773501 0.570025 -0.213297 -0.793458 
-0.395428 -0.014698 0.774428 0.720433 -0.203773 -0.662912 
-0.394549 -0.014723 0.775706 0.823661 -0.179323 -0.537984 
-0.393785 -0.014752 0.777223 0.663882 -0.211292 -0.717367 
-0.392684 -0.014768 0.778081 0.275733 -0.211988 -0.937567 
-0.391226 -0.014771 0.778237 0.17874 -0.244048 -0.953149 
-0.389709 -0.014771 0.778276 0.0131586 -0.274799 -0.961412 
-0.388114 -0.014769 0.778159 -0.0618259 -0.296174 -0.953131 
-0.386519 -0.014767 0.778042 -0.140119 -0.240961 -0.960367 
-0.384886 -0.014763 0.777847 -0.216052 -0.220828 -0.951082 
-0.383119 -0.014754 0.777379 -0.418407 -0.141485 -0.897172 
-0.380878 -0.014727 0.775939 -0.554776 -0.070285 -0.829026 
-0.378531 -0.014696 0.774273 -0.562973 0.00859578 -0.826431 
-0.376288 -0.014668 0.772807 -0.527801 0.0299523 -0.84884 
-0.374184 -0.014645 0.771615 -0.473636 0.0246444 -0.880376 
-0.372197 -0.014627 0.770656 -0.503602 -0.0209061 -0.863683 
-0.369977 -0.014599 0.769203 -0.596278 -0.0537261 -0.800978 
-0.367383 -0.014557 0.766958 -0.667812 -0.140784 -0.730895 
-0.364606 -0.014506 0.764312 -0.603586 -0.16422 -0.780202 
-0.362346 -0.014476 0.762733 -0.469874 -0.1828 -0.863598 
-0.360432 -0.01446 0.761871 -0.428075 -0.178325 -0.885975 
-0.358452 -0.014441 0.760861 -0.517364 -0.193716 -0.833552 
-0.356129 -0.014408 0.759111 -0.616966 -0.154024 -0.77177 
-0.35347 -0.014361 0.756629 -0.621978 -0.12545 -0.77292 
-0.351239 -0.014331 0.755045 -0.474321 -0.0735745 -0.877272 
-0.349442 -0.014318 0.754383 -0.325145 -0.0438525 -0.944647 
-0.347716 -0.014308 0.75387 -0.315741 -0.000581031 -0.948845 
-0.345924 -0.014296 0.753211 -0.332656 0.00188724 -0.943046 
-0.34417 -0.014285 0.752626 -0.388813 0.00594354 -0.921297 
-0.342235 -0.014266 0.751641 -0.477975 0.00665692 -0.878348 
-0.340206 -0.014243 0.75044 -0.444147 -0.0090519 -0.895908 
-0.338446 -0.014231 0.749823 -0.260697 0.00336175 -0.965415 
-0.336852 -0.014227 0.74957 -0.0694739 -0.055448 -0.996042 
-0.335388 -0.014227 0.749606 -0.0576454 -0.0440401 -0.997365 
-0.333843 -0.014225 0.749461 0.030597 -0.10724 -0.993762 
-0.332411 -0.014227 0.74957 0.330047 -0.161626 -0.930025 
-0.331283 -0.014242 0.750368 0.378177 -0.168931 -0.910189 
-0.329977 -0.014249 0.750767 0.446124 -0.122079 -0.886606 
-0.328845 -0.014264 0.751568 0.5413 -0.179379 -0.821473 
-0.350919 -0.015291 0.805653 -0.128993 -0.258547 -0.957348 
-0.349219 -0.015286 0.805402 -0.131898 -0.125065 -0.983342 
-0.347503 -0.015281 0.805109 -0.163134 -0.084855 -0.982948 
-0.345769 -0.015274 0.804775 -0.161822 -0.0948573 -0.98225 
-0.344126 -0.015272 0.804649 -0.117367 -0.1337 -0.984047 
-0.342466 -0.015269 0.804482 -0.06357 -0.153325 -0.986129 
-0.340878 -0.015269 0.804482 -0.0267523 -0.144031 -0.989212 
-0.339272 -0.015268 0.804441 0.00731541 -0.112396 -0.993637 
-0.337683 -0.015268 0.804441 0.0273302 -0.109064 -0.993659 
-0.336165 -0.015271 0.804608 0.0464782 -0.114909 -0.992288 
-0.334645 -0.015274 0.804775 0.078178 -0.135579 -0.987677 
-0.333073 -0.015275 0.804817 0.126132 -0.301055 -0.945228 
-0.331605 -0.015281 0.805109 0.208829 -0.353374 -0.911876 
-0.330186 -0.015289 0.805527 0.248161 -0.455279 -0.855065 
-0.328938 -0.015305 0.806365 0.245636 -0.47478 -0.845131 
-0.327362 -0.015305 0.806407 0.291139 -0.50834 -0.81045 
-0.326058 -0.015319 0.807121 0.194683 -0.478847 -0.85604 
-0.324448 -0.015318 0.807079 0.181171 -0.391629 -0.902111 
-0.323005 -0.015325 0.807457 0.284268 -0.254517 -0.924345 
-0.321662 -0.015337 0.808088 0.585558 -0.175122 -0.791488 
-0.320584 -0.015362 0.809396 0.546968 -0.177603 -0.818097 
-0.319286 -0.015377 0.810157 0.219606 -0.218828 -0.95073 
-0.317769 -0.015381 0.810369 0.184361 -0.239501 -0.953231 
-0.316252 -0.015385 0.810581 -0.030237 -0.240832 -0.970096 
-0.314454 -0.015375 0.810072 -0.253738 -0.213748 -0.94336 
-0.312544 -0.01536 0.809269 -0.324571 -0.274738 -0.905082 
-0.310735 -0.015349 0.80872 -0.239252 -0.21648 -0.946517 
-0.308945 -0.01534 0.808214 -0.0874744 -0.216701 -0.972311 
-0.307365 -0.015341 0.808257 0.0227386 -0.20403 -0.978701 
-0.305881 -0.015346 0.808552 -0.0103516 -0.159415 -0.987157 
-0.304237 -0.015344 0.808425 -0.211569 -0.132168 -0.968385 
-0.302325 -0.015328 0.807583 -0.216209 -0.14385 -0.965692 
-0.300605 -0.015321 0.807247 0.133266 -0.194503 -0.971807 
-0.299136 -0.015328 0.807583 0.330985 -0.272292 -0.903497 
-0.297789 -0.015341 0.808257 0.235293 -0.33303 -0.913087 
-0.296286 -0.015345 0.80851 0.217713 -0.388626 -0.895305 
-0.294874 -0.015355 0.809016 0.316378 -0.445379 -0.837581 
-0.293475 -0.015365 0.809565 0.200671 -0.516903 -0.832191 
-0.292029 -0.015373 0.809988 0.17098 -0.554124 -0.814686 
-0.290536 -0.015379 0.810284 0.0876834 -0.659016 -0.747001 
-0.288846 -0.015374 0.81003 -0.0102172 -0.690551 -0.723211 
-0.287306 -0.015377 0.810199 -0.140169 -0.698566 -0.701683 
-0.285334 -0.015357 0.809142 -0.36662 -0.741701 -0.561667 
-0.282777 -0.015305 0.806407 -0.476017 -0.717728 -0.508207 
-0.280528 -0.01527 0.804524 -0.411794 -0.653982 -0.634613 
-0.278477 -0.015244 0.803191 -0.287072 -0.606074 -0.741798 
-0.276704 -0.015234 0.80265 -0.18013 -0.601716 -0.778133 
-0.274977 -0.015226 0.802235 -0.168741 -0.599745 -0.782198 
-0.273308 -0.015221 0.801986 -0.216334 -0.581396 -0.784333 
-0.2715 -0.015209 0.801323 -0.347155 -0.506814 -0.789065 
-0.269542 -0.015188 0.800206 -0.446274 -0.442527 -0.777823 
-0.26752 -0.015163 0.798887 -0.439569 -0.479986 -0.759205 
-0.265573 -0.015142 0.797777 -0.447847 -0.535908 -0.715707 
-0.263442 -0.01511 0.796098 -0.481688 -0.473533 -0.737389 
-0.261494 -0.015088 0.794955 -0.428567 -0.434065 -0.792413 
-0.259591 -0.015069 0.793937 -0.479524 -0.374405 -0.793648 
-0.257588 -0.015043 0.792598 -0.516474 -0.303158 -0.800843 
-0.255605 -0.015019 0.791304 -0.374274 -0.385161 -0.843546 
-0.253848 -0.015007 0.790698 -0.159297 -0.474607 -0.865663 
-0.252261 -0.015006 0.790618 -0.171045 -0.512155 -0.841689 
-0.250547 -0.014996 0.790134 -0.226245 -0.534107 -0.814581 
-0.24872 -0.01498 0.78929 -0.368427 -0.482391 -0.794708 
-0.246823 -0.01496 0.788206 -0.428642 -0.484237 -0.762746 
-0.244943 -0.01494 0.787166 -0.343935 -0.502631 -0.79314 
-0.243191 -0.014928 0.786527 -0.308678 -0.531231 -0.788994 
-0.241356 -0.014911 0.785611 -0.42015 -0.443629 -0.791623 
-0.239453 -0.014889 0.784458 -0.474412 -0.375568 -0.796167 
-0.237519 -0.014865 0.78319 -0.550161 -0.323428 -0.769881 
-0.235461 -0.014833 0.781493 -0.518841 -0.310453 -0.796506 
-0.233624 -0.014814 0.780509 -0.432463 -0.281942 -0.856437 
-0.231768 -0.014794 0.77945 -0.432438 -0.260265 -0.863284 
-0.230044 -0.014782 0.778823 -0.358911 -0.189389 -0.913955 
-0.228357 -0.014772 0.778315 -0.320658 -0.201894 -0.925428 
-0.22666 -0.014762 0.777769 -0.428328 -0.257031 -0.866297 
-0.224809 -0.014741 0.776678 -0.471773 -0.243214 -0.847512 
-0.223007 -0.014723 0.775745 -0.343227 -0.261678 -0.902064 
-0.221354 -0.014715 0.775318 -0.334764 -0.24483 -0.90994 
-0.219592 -0.0147 0.774505 -0.295157 -0.290593 -0.910186 
-0.217976 -0.014694 0.774196 -0.208905 -0.299881 -0.930822 
-0.216328 -0.014686 0.773771 -0.32944 -0.310267 -0.891742 
-0.214565 -0.01467 0.772922 -0.417351 -0.331896 -0.845969 
-0.212773 -0.014652 0.77196 -0.461684 -0.331947 -0.822593 
-0.210955 -0.014631 0.770886 -0.428239 -0.345289 -0.835097 
-0.209225 -0.014617 0.77012 -0.38519 -0.347526 -0.8549 
-0.207477 -0.014601 0.769279 -0.257239 -0.430175 -0.865319 
-0.205907 -0.014597 0.769089 -0.163269 -0.466303 -0.869428 
-0.204257 -0.014588 0.768593 -0.182812 -0.501569 -0.845582 
-0.202679 -0.014583 0.768365 -0.12723 -0.570988 -0.81104 
-0.201142 -0.014582 0.768288 -0.0774146 -0.643632 -0.76141 
-0.199615 -0.014581 0.76825 -0.0527832 -0.695231 -0.716846 
-0.198058 -0.014578 0.768098 -0.0861145 -0.707219 -0.701731 
-0.196435 -0.01457 0.76768 -0.135035 -0.733172 -0.666502 
-0.194774 -0.01456 0.76711 -0.0529755 -0.748246 -0.661303 
-0.193278 -0.014561 0.767186 0.055302 -0.759391 -0.648279 
-0.191849 -0.014567 0.767528 0.0585442 -0.723298 -0.68805 
-0.190315 -0.014566 0.767452 0.0491091 -0.661803 -0.748068 
-0.188846 -0.01457 0.767642 0.0225341 -0.632754 -0.774025 
-0.187367 -0.014573 0.767794 0.0471355 -0.562409 -0.825515 
-0.185851 -0.014573 0.767794 0.0350409 -0.498631 -0.866106 
-0.184317 -0.014571 0.767718 -0.0257569 -0.431944 -0.901533 
-0.182765 -0.014568 0.767566 -0.0537174 -0.391035 -0.918807 
-0.18124 -0.014567 0.767528 -0.0302582 -0.374473 -0.926744 
-0.179724 -0.014567 0.767528 -0.0302941 -0.374463 -0.926747 
-0.178209 -0.014567 0.767528 -0.0709935 -0.381359 -0.921697 
-0.176658 -0.014565 0.767376 -0.0760802 -0.40889 -0.909407 
-0.175091 -0.01456 0.767148 -0.0357446 -0.428064 -0.903041 
-0.173602 -0.014562 0.767262 0.0573254 -0.457733 -0.88724 
-0.172036 -0.014558 0.767034 0.11871 -0.475096 -0.87189 
-0.170622 -0.014567 0.76749 0.177221 -0.501171 -0.847007 
-0.169157 -0.014571 0.767718 0.135026 -0.531464 -0.83625 
-0.167724 -0.014578 0.768098 0.173147 -0.555096 -0.813565 
-0.166306 -0.014587 0.768555 0.274149 -0.545598 -0.791938 
-0.164944 -0.014601 0.769279 0.381838 -0.494046 -0.781101 
-0.163539 -0.014611 0.769814 0.356017 -0.462612 -0.811937 
-0.162139 -0.014622 0.770388 0.297046 -0.443421 -0.84566 
-0.160746 -0.014633 0.771001 0.34418 -0.441477 -0.828636 
-0.159358 -0.014646 0.771653 0.405517 -0.450147 -0.795565 
-0.157976 -0.014659 0.772345 0.326281 -0.473957 -0.817866 
-0.156545 -0.014668 0.772807 0.275218 -0.474808 -0.83595 
-0.155073 -0.014673 0.773076 0.233834 -0.445576 -0.864166 
-0.153653 -0.014683 0.773617 0.320698 -0.392455 -0.862051 
-0.152255 -0.014696 0.774273 0.446139 -0.342822 -0.8267 
-0.150914 -0.014714 0.775241 0.562548 -0.287053 -0.775333 
-0.149571 -0.014732 0.776211 0.648281 -0.245638 -0.72069 
-0.148283 -0.014757 0.777496 0.680398 -0.187974 -0.708325 
-0.146939 -0.014776 0.778511 0.554216 -0.141472 -0.820262 
-0.145533 -0.014789 0.779215 0.443362 -0.135485 -0.886044 
-0.144125 -0.014803 0.77992 0.460699 -0.140633 -0.876344 
-0.14275 -0.01482 0.780824 0.457472 -0.164224 -0.873928 
-0.141372 -0.014837 0.781729 0.355925 -0.19413 -0.914128 
-0.139871 -0.014842 0.781966 0.295992 -0.235788 -0.925631 
-0.138438 -0.014854 0.782597 0.336939 -0.285046 -0.897341 
-0.137025 -0.014868 0.783348 0.39935 -0.337345 -0.852478 
-0.135615 -0.014883 0.784141 0.429594 -0.377664 -0.820255 
-0.101116 -0.012061 0.635449 -0.101983 0.221911 -0.969719 
-0.099869 -0.012062 0.635501 -0.00484558 0.170262 -0.985387 
-0.098606 -0.012061 0.635449 0.0437305 0.0879674 -0.995163 
-0.097371 -0.012063 0.635579 0.10981 0.042417 -0.993047 
-0.096148 -0.012067 0.635788 0.147088 0.0103687 -0.989069 
-0.094912 -0.01207 0.635918 0.0837476 -0.0252692 -0.996167 
-0.093648 -0.012069 0.635866 0.0193274 -0.0950079 -0.995289 
-0.0924 -0.01207 0.635918 0.0963677 -0.195221 -0.976013 
-0.091186 -0.012075 0.636205 0.169663 -0.289366 -0.942062 
-0.089956 -0.012079 0.636388 0.323205 -0.287498 -0.9016 
-0.088841 -0.012098 0.637408 0.601684 -0.41798 -0.680638 
-0.087806 -0.012129 0.639037 0.713793 -0.43275 -0.55066 
-0.086705 -0.012151 0.640224 0.686782 -0.46003 -0.562764 
-0.085621 -0.012177 0.641575 0.683803 -0.47832 -0.551021 
-0.084571 -0.012208 0.643226 0.757205 -0.537056 -0.371767 
-0.083687 -0.012265 0.646201 0.742727 -0.553641 -0.376613 
-0.082617 -0.012295 0.647821 0.586957 -0.464956 -0.662795 
-0.08146 -0.012314 0.648797 0.510203 -0.447188 -0.734654 
-0.08026 -0.012326 0.649449 0.390967 -0.449545 -0.803153 
-0.079057 -0.012339 0.650102 0.367228 -0.46649 -0.804693 
-0.077819 -0.012346 0.650484 0.351467 -0.461928 -0.814305 
-0.076624 -0.012361 0.651249 0.471647 -0.423234 -0.773577 
-0.075453 -0.012379 0.652236 0.550828 -0.366163 -0.750009 
-0.074237 -0.012391 0.652867 0.572413 -0.284793 -0.768919 
-0.073043 -0.012407 0.65372 0.659225 -0.251314 -0.708706 
-0.071858 -0.012426 0.654687 0.716456 -0.263389 -0.646 
-0.070753 -0.012459 0.656433 0.786991 -0.393601 -0.475104 
-0.069847 -0.012529 0.660122 0.784607 -0.453377 -0.422895 
-0.068702 -0.012558 0.661643 0.611316 -0.403507 -0.68079 
-0.067493 -0.012576 0.662604 0.512247 -0.414161 -0.752379 
-0.06625 -0.012588 0.663256 0.406885 -0.4037 -0.819433 
-0.065007 -0.012601 0.663937 0.318344 -0.425029 -0.847353 
-0.06374 -0.01261 0.664393 0.200388 -0.437875 -0.876419 
-0.062444 -0.012613 0.664563 0.141895 -0.431694 -0.89079 
-0.061155 -0.012618 0.66482 0.119963 -0.421834 -0.898702 
-0.059853 -0.01262 0.664934 0.0801862 -0.416381 -0.905648 
-0.05855 -0.012622 0.665048 0.0620654 -0.4056 -0.911941 
-0.057242 -0.012624 0.665105 0.117487 -0.409495 -0.904716 
-0.055955 -0.01263 0.665419 0.174548 -0.407486 -0.896375 
-0.054664 -0.012635 0.665705 0.115473 -0.430377 -0.895233 
-0.053352 -0.012635 0.665733 0.0936307 -0.451638 -0.887275 
-0.05206 -0.012641 0.666019 0.205029 -0.466338 -0.860519 
-0.050779 -0.012649 0.666477 0.302115 -0.461492 -0.834118 
-0.049495 -0.012658 0.666907 0.246009 -0.459413 -0.853475 
-0.048201 -0.012664 0.667223 0.192833 -0.454055 -0.869856 
-0.046906 -0.01267 0.667539 0.167861 -0.431164 -0.886522 
-0.045602 -0.012674 0.66774 0.193392 -0.403417 -0.894346 
-0.044298 -0.012678 0.66797 0.235794 -0.379175 -0.894778 
-0.043009 -0.012687 0.668431 0.217947 -0.372296 -0.902161 
-0.041705 -0.012692 0.66869 0.158296 -0.355892 -0.921023 
-0.040406 -0.012698 0.669037 0.100377 -0.322197 -0.941336 
-0.039088 -0.012699 0.669094 0.107131 -0.280641 -0.953815 
-0.03777 -0.0127 0.669152 -0.00725328 -0.250405 -0.968114 
-0.036439 -0.012697 0.668979 -0.0903724 -0.238044 -0.967041 
-0.035108 -0.012693 0.668777 -0.0960994 -0.225569 -0.969476 
-0.033784 -0.012692 0.668719 -0.0044198 -0.211134 -0.977447 
-0.032464 -0.012692 0.668719 0.0598817 -0.21108 -0.975633 
-0.031153 -0.012696 0.668921 0.106334 -0.241112 -0.964654 
-0.029838 -0.012699 0.669066 0.0492231 -0.285364 -0.957154 
-0.028512 -0.012697 0.66895 -0.0578832 -0.292832 -0.95441 
-0.027184 -0.012693 0.668777 -0.11683 -0.27642 -0.953909 
-0.025854 -0.012688 0.668518 -0.14174 -0.278824 -0.949825 
-0.024524 -0.012683 0.668258 -0.180872 -0.302648 -0.935783 
-0.023192 -0.012676 0.667884 -0.185455 -0.351396 -0.917675 
-0.021862 -0.01267 0.667568 -0.0702336 -0.396278 -0.91544 
-0.020548 -0.012672 0.667683 0.035862 -0.455115 -0.88971 
-0.019232 -0.012674 0.667769 0.0771693 -0.519133 -0.851202 
-0.017918 -0.012677 0.667942 0.0120519 -0.574588 -0.818354 
-0.0166 -0.012678 0.667999 -0.00338904 -0.60698 -0.79471 
-0.015278 -0.012676 0.667855 -0.0892807 -0.61578 -0.782844 
-0.013951 -0.012668 0.667453 -0.0896027 -0.650866 -0.753886 
-0.442689 -0.016056 0.766238 0.480324 0.125554 -0.868058 
-0.441656 -0.016074 0.767072 0.498586 0.102688 -0.860737 
-0.39888 -0.016182 0.772229 0.38932 -0.202105 -0.898656 
-0.397692 -0.016195 0.772884 0.537577 -0.0130996 -0.843113 
-0.396541 -0.016211 0.773617 0.657723 -0.0312294 -0.752612 
-0.395546 -0.016233 0.77466 0.732696 -0.0321966 -0.679794 
-0.394746 -0.016262 0.776095 0.847975 -0.0538659 -0.527292 
-0.393924 -0.016292 0.777496 0.716261 -0.101474 -0.690415 
-0.392802 -0.016309 0.778315 0.341465 -0.148685 -0.928059 
-0.391422 -0.016316 0.778628 0.19655 -0.170841 -0.965495 
-0.389963 -0.016319 0.778784 0.0370009 -0.183792 -0.982268 
-0.388425 -0.016319 0.778784 -0.0628627 -0.174701 -0.982613 
-0.386771 -0.016314 0.77855 -0.157123 -0.105936 -0.981881 
-0.38504 -0.016306 0.778159 -0.23081 -0.0697307 -0.970497 
-0.383273 -0.016296 0.777691 -0.457849 -0.0738114 -0.885961 
-0.380992 -0.016264 0.776172 -0.573675 -0.0396171 -0.818124 
-0.378512 -0.016224 0.774235 -0.578813 0.0211684 -0.815186 
-0.376251 -0.016192 0.77273 -0.517656 0.0249288 -0.855226 
-0.374128 -0.016166 0.771499 -0.465447 0.0280908 -0.88463 
-0.372179 -0.016148 0.770618 -0.477642 -0.00671214 -0.878529 
-0.370013 -0.01612 0.769279 -0.575923 -0.0174077 -0.817318 
-0.367583 -0.01608 0.767376 -0.65255 -0.0821614 -0.753279 
-0.364804 -0.016024 0.764727 -0.643648 -0.101656 -0.758541 
-0.362543 -0.015991 0.763146 -0.509868 -0.0755479 -0.856929 
-0.360574 -0.015971 0.76217 -0.430087 -0.114164 -0.89554 
-0.358611 -0.01595 0.761198 -0.520093 -0.118736 -0.845816 
-0.356286 -0.015914 0.759445 -0.61499 -0.107817 -0.78113 
-0.353729 -0.015866 0.757183 -0.632458 -0.123239 -0.764728 
-0.351393 -0.015828 0.755376 -0.503782 -0.0965304 -0.85842 
-0.349527 -0.015811 0.754567 -0.352308 -0.114518 -0.928851 
-0.347783 -0.0158 0.754017 -0.329073 -0.0770537 -0.941155 
-0.345992 -0.015786 0.753357 -0.345802 -0.0562276 -0.936621 
-0.344236 -0.015774 0.752772 -0.379758 -0.057091 -0.923323 
-0.342351 -0.015755 0.751896 -0.457569 -0.0424277 -0.888161 
-0.340305 -0.01573 0.750658 -0.439271 -0.0853447 -0.894292 
-0.338528 -0.015716 0.750005 -0.252078 -0.107509 -0.961717 
-0.336949 -0.015711 0.749787 -0.0687222 -0.109439 -0.991615 
-0.335469 -0.015711 0.749787 -0.0634387 -0.0934697 -0.993599 
-0.333859 -0.015705 0.749497 0.0731088 -0.16344 -0.983841 
-0.332427 -0.015707 0.749606 0.313002 -0.161267 -0.935961 
-0.331315 -0.015725 0.75044 0.370355 -0.147804 -0.917056 
-0.329977 -0.015732 0.750767 0.485088 -0.157536 -0.860158 
-0.328861 -0.015749 0.751604 0.699282 -0.17716 -0.692545 
-0.327965 -0.015778 0.752955 0.791345 -0.164122 -0.588928 
-0.330375 -0.016889 0.805988 0.26101 -0.424898 -0.866796 
-0.329057 -0.016903 0.806659 0.316205 -0.44469 -0.838013 
-0.327618 -0.016911 0.807037 0.297516 -0.294988 -0.908001 
-0.326398 -0.01693 0.807962 0.109108 -0.638216 -0.762087 
-0.324701 -0.016925 0.807709 0.127732 -0.270575 -0.954188 
-0.32319 -0.016929 0.80792 0.365961 -0.227028 -0.902514 
-0.321796 -0.01694 0.808425 0.568462 -0.184055 -0.801857 
-0.320819 -0.016973 0.809988 0.632948 -0.270969 -0.725226 
-0.31947 -0.016986 0.810623 0.24889 -0.380421 -0.890693 
-0.317952 -0.016991 0.810835 0.21758 -0.449017 -0.866627 
-0.316401 -0.016993 0.810962 0.0124593 -0.477486 -0.878551 
-0.314651 -0.016985 0.810581 -0.197262 -0.361594 -0.911229 
-0.312724 -0.016967 0.809734 -0.294389 -0.382512 -0.875797 
-0.310849 -0.016952 0.809016 -0.199573 -0.400072 -0.89449 
-0.309106 -0.016944 0.808636 -0.163365 -0.392975 -0.904922 
-0.307397 -0.016938 0.808341 -0.0908764 -0.441412 -0.892691 
-0.305753 -0.016936 0.808214 -0.0444524 -0.379667 -0.924055 
-0.304173 -0.016937 0.808257 -0.178783 -0.375847 -0.909272 
-0.302231 -0.016917 0.807331 -0.216404 -0.303951 -0.927784 
-0.300558 -0.016913 0.807121 0.088015 -0.437489 -0.894906 
-0.299167 -0.016924 0.807667 0.266266 -0.470597 -0.841214 
-0.297867 -0.016941 0.808467 0.349106 -0.488657 -0.799587 
-0.296348 -0.016945 0.808678 0.301874 -0.484003 -0.821348 
-0.294966 -0.016958 0.809269 0.261449 -0.461652 -0.847656 
-0.293583 -0.01697 0.809861 0.348 -0.456107 -0.819062 
-0.292151 -0.01698 0.810326 0.309328 -0.467661 -0.828015 
-0.290734 -0.016991 0.810835 0.213577 -0.527966 -0.821971 
-0.289314 -0.017001 0.811344 0.171315 -0.589586 -0.789329 
-0.287772 -0.017005 0.811514 0.00624323 -0.596955 -0.80225 
-0.28596 -0.016992 0.81092 -0.25829 -0.627505 -0.734523 
-0.283854 -0.016962 0.80948 -0.521228 -0.546612 -0.65539 
-0.281404 -0.016911 0.807037 -0.562786 -0.561335 -0.606775 
-0.279012 -0.016863 0.804733 -0.35651 -0.62357 -0.695745 
-0.277178 -0.016848 0.804024 -0.185848 -0.647813 -0.738782 
-0.275448 -0.016839 0.803607 -0.167026 -0.643222 -0.74724 
-0.273747 -0.016832 0.803274 -0.239897 -0.616549 -0.749878 
-0.271837 -0.016812 0.802318 -0.360295 -0.494903 -0.790733 
-0.269862 -0.016788 0.801157 -0.428961 -0.462878 -0.775717 
-0.267961 -0.016768 0.800206 -0.39614 -0.469261 -0.789219 
-0.266079 -0.016749 0.799299 -0.391885 -0.515952 -0.761722 
-0.264065 -0.016721 0.797982 -0.448469 -0.566966 -0.69096 
-0.261977 -0.016689 0.796425 -0.463722 -0.552782 -0.692383 
-0.259924 -0.016658 0.794955 -0.562443 -0.41524 -0.715006 
-0.257799 -0.016622 0.793247 -0.536748 -0.342203 -0.771232 
-0.255775 -0.016592 0.791829 -0.337061 -0.283071 -0.89792 
-0.254069 -0.016583 0.791384 -0.143998 -0.441685 -0.885539 
-0.252545 -0.016586 0.791506 -0.107937 -0.463297 -0.879605 
-0.250879 -0.016579 0.791182 -0.213763 -0.475783 -0.853192 
-0.249075 -0.016563 0.790416 -0.391098 -0.432783 -0.812245 
-0.247212 -0.016542 0.78945 -0.427957 -0.438494 -0.790301 
-0.245354 -0.016522 0.788487 -0.404316 -0.450949 -0.795722 
-0.243561 -0.016506 0.787726 -0.339361 -0.483407 -0.80694 
-0.241772 -0.01649 0.786966 -0.389504 -0.504894 -0.770304 
-0.239817 -0.016463 0.78565 -0.489663 -0.450603 -0.74645 
-0.237856 -0.016435 0.784299 -0.544084 -0.404149 -0.735279 
-0.235806 -0.0164 0.782637 -0.557273 -0.372215 -0.742228 
-0.233906 -0.016375 0.781453 -0.494948 -0.327677 -0.80477 
-0.232013 -0.01635 0.780273 -0.462688 -0.227903 -0.856726 
-0.230182 -0.01633 0.779293 -0.392082 -0.183974 -0.901346 
-0.228471 -0.016317 0.778706 -0.289421 -0.15881 -0.943936 
-0.226797 -0.016307 0.778237 -0.401804 -0.179938 -0.897873 
-0.224944 -0.016285 0.777145 -0.493228 -0.124717 -0.860913 
-0.223163 -0.016267 0.776289 -0.393084 -0.110766 -0.912807 
-0.221486 -0.016256 0.775784 -0.342525 -0.155881 -0.926487 
-0.219746 -0.016241 0.775047 -0.297523 -0.165782 -0.940211 
-0.21815 -0.016236 0.774815 -0.183507 -0.22648 -0.956573 
-0.216512 -0.016228 0.774428 -0.289568 -0.26508 -0.919719 
-0.214811 -0.016215 0.77381 -0.375638 -0.322913 -0.868691 
-0.213049 -0.016197 0.772961 -0.443857 -0.360288 -0.820478 
-0.211175 -0.01617 0.771691 -0.422295 -0.412405 -0.807211 
-0.209464 -0.016156 0.771001 -0.305813 -0.474601 -0.825368 
-0.207724 -0.016139 0.770196 -0.192075 -0.529015 -0.82659 
-0.206224 -0.01614 0.770273 -0.0995925 -0.572567 -0.813786 
-0.204612 -0.016133 0.769929 -0.106327 -0.603209 -0.790464 
-0.203031 -0.016129 0.769699 -0.0331471 -0.641161 -0.76669 
-0.201521 -0.016129 0.769738 0.00575318 -0.661752 -0.7497 
-0.199981 -0.016128 0.769661 -0.00785862 -0.681334 -0.731931 
-0.198481 -0.016129 0.769738 -0.0576732 -0.687109 -0.724262 
-0.196912 -0.016125 0.769547 -0.0711782 -0.694718 -0.715752 
-0.195276 -0.016116 0.769089 -0.0318746 -0.736543 -0.67564 
-0.193844 -0.016123 0.769432 -0.0216061 -0.724124 -0.689331 
-0.192315 -0.016122 0.769394 -0.0434036 -0.680264 -0.731681 
-0.19072 -0.016116 0.769089 -0.122468 -0.602881 -0.788375 
-0.18908 -0.016105 0.768593 -0.0590288 -0.557923 -0.827791 
-0.187534 -0.016103 0.768479 -0.0299671 -0.496388 -0.867583 
-0.186026 -0.016104 0.768517 -0.031791 -0.456889 -0.888955 
-0.18449 -0.016102 0.768441 -0.0537548 -0.431022 -0.900739 
-0.182946 -0.0161 0.768326 -0.0944268 -0.387029 -0.91722 
-0.181384 -0.016096 0.768136 -0.0632911 -0.348943 -0.935004 
-0.17984 -0.016093 0.768022 -0.041205 -0.312497 -0.949025 
-0.178324 -0.016093 0.768022 -0.0454561 -0.315685 -0.947775 
-0.176754 -0.016089 0.767794 -0.0836663 -0.329586 -0.940411 
-0.175195 -0.016085 0.767604 -0.0249961 -0.339009 -0.940451 
-0.173696 -0.016086 0.76768 0.0398137 -0.354603 -0.934169 
-0.172206 -0.016089 0.767794 0.109137 -0.344351 -0.932476 
-0.170749 -0.016094 0.76806 0.191746 -0.347628 -0.917817 
-0.169283 -0.016099 0.768288 0.186575 -0.33681 -0.922902 
-0.167849 -0.016107 0.768669 0.234241 -0.34026 -0.910689 
-0.166422 -0.016116 0.769089 0.309685 -0.321185 -0.89495 
-0.165034 -0.016129 0.769699 0.329314 -0.284106 -0.900464 
-0.163612 -0.016138 0.770158 0.325032 -0.238729 -0.915075 
-0.162188 -0.016148 0.770618 0.340991 -0.206844 -0.917028 
-0.160786 -0.01616 0.771192 0.413605 -0.216347 -0.884378 
-0.15943 -0.016177 0.771999 0.435467 -0.237802 -0.868227 
-0.158055 -0.016192 0.77273 0.330223 -0.266476 -0.905507 
-0.15663 -0.016203 0.773231 0.248321 -0.263738 -0.932083 
-0.155158 -0.016208 0.773501 0.25797 -0.256008 -0.931617 
-0.15373 -0.016219 0.774003 0.319839 -0.239523 -0.916696 
-0.152323 -0.016232 0.774621 0.454681 -0.225825 -0.86155 
-0.150982 -0.016252 0.77559 0.597369 -0.141532 -0.789379 
-0.149653 -0.016274 0.776639 0.626745 -0.13517 -0.767411 
-0.148342 -0.016298 0.777808 0.621799 -0.119262 -0.774043 
-0.146998 -0.01632 0.778823 0.527648 -0.108521 -0.842503 
-0.145592 -0.016334 0.779528 0.469789 -0.120094 -0.874572 
-0.14419 -0.01635 0.780273 0.493392 -0.157975 -0.855341 
-0.142786 -0.016366 0.78102 0.466412 -0.196547 -0.862455 
-0.141408 -0.016385 0.781926 0.363834 -0.222284 -0.904552 
-0.139913 -0.01639 0.782202 0.366141 -0.273239 -0.88954 
-0.13848 -0.016404 0.782834 0.419012 -0.326608 -0.847205 
-0.137073 -0.01642 0.783625 0.457471 -0.355728 -0.814971 
-0.135663 -0.016437 0.784418 0.431453 -0.375942 -0.820071 
-0.101095 -0.013313 0.635319 0.0600679 0.0939662 -0.993762 
-0.099873 -0.013317 0.635527 0.0892628 -0.0175892 -0.995853 
-0.098626 -0.013318 0.635579 0.0956077 -0.0699765 -0.992956 
-0.097403 -0.013322 0.635788 0.162671 -0.101006 -0.981497 
-0.096183 -0.013327 0.636023 0.147626 -0.131814 -0.98022 
-0.094943 -0.01333 0.636127 0.0831598 -0.155538 -0.984323 
-0.093698 -0.013331 0.636205 0.111563 -0.200447 -0.973332 
-0.092461 -0.013334 0.636336 0.164013 -0.269249 -0.949002 
-0.091253 -0.013341 0.636675 0.237163 -0.356522 -0.903684 
-0.090048 -0.013349 0.637042 0.458002 -0.440268 -0.772268 
-0.088973 -0.013376 0.638353 0.676352 -0.41939 -0.605524 
-0.087933 -0.01341 0.63996 0.736006 -0.356111 -0.575744 
-0.086816 -0.013433 0.641045 0.713965 -0.40054 -0.574301 
-0.085763 -0.013466 0.642639 0.781567 -0.473046 -0.40667 
-0.084832 -0.01352 0.645206 0.786462 -0.517846 -0.336621 
-0.083844 -0.013566 0.647415 0.703669 -0.463492 -0.538539 
-0.082686 -0.013586 0.648363 0.561412 -0.440787 -0.700374 
-0.081525 -0.013606 0.649313 0.478503 -0.346228 -0.806945 
-0.080327 -0.01362 0.649994 0.407831 -0.311138 -0.85841 
-0.07911 -0.013632 0.650539 0.385234 -0.3182 -0.866224 
-0.077868 -0.013639 0.650894 0.417463 -0.326356 -0.848066 
-0.076663 -0.013653 0.651578 0.469 -0.360595 -0.806233 
-0.075478 -0.013672 0.652455 0.517809 -0.332554 -0.788214 
-0.074274 -0.013687 0.653197 0.561343 -0.27055 -0.78211 
-0.07308 -0.013705 0.654051 0.599048 -0.217728 -0.770543 
-0.071937 -0.013734 0.655406 0.751705 -0.317499 -0.578043 
-0.070915 -0.013787 0.657937 0.86038 -0.346825 -0.373442 
-0.06994 -0.013851 0.660994 0.769974 -0.423905 -0.476911 
-0.068758 -0.013876 0.66218 0.620458 -0.391312 -0.679638 
-0.067554 -0.013897 0.663199 0.489277 -0.371188 -0.789194 
-0.06631 -0.013911 0.663852 0.406402 -0.365507 -0.837402 
-0.065066 -0.013925 0.664535 0.33295 -0.362871 -0.870327 
-0.063795 -0.013934 0.664962 0.203833 -0.370612 -0.906145 
-0.062498 -0.013937 0.665134 0.128495 -0.368623 -0.920655 
-0.061203 -0.013942 0.665333 0.109289 -0.360314 -0.926407 
-0.059899 -0.013944 0.665448 0.0980843 -0.357273 -0.928836 
-0.058598 -0.013947 0.66559 0.0647811 -0.357486 -0.931669 
-0.057283 -0.013947 0.66559 0.109699 -0.353109 -0.929129 
-0.056005 -0.013956 0.666019 0.185545 -0.326997 -0.926631 
-0.054711 -0.013961 0.666277 0.133685 -0.317151 -0.938906 
-0.0534 -0.013963 0.666334 0.13503 -0.34225 -0.929856 
-0.052104 -0.013968 0.666592 0.246638 -0.386662 -0.888629 
-0.050834 -0.013981 0.667194 0.314457 -0.423156 -0.849739 
-0.049555 -0.013991 0.667711 0.260967 -0.448055 -0.855069 
-0.048261 -0.013999 0.668057 0.200182 -0.457386 -0.866444 
-0.046962 -0.014005 0.668345 0.174941 -0.458913 -0.871088 
-0.045657 -0.014009 0.668546 0.135698 -0.450853 -0.882223 
-0.044352 -0.014014 0.668777 0.175366 -0.433345 -0.884001 
-0.043059 -0.014023 0.66921 0.227914 -0.407912 -0.884117 
-0.041752 -0.014028 0.669441 0.162322 -0.392581 -0.90528 
-0.040446 -0.014033 0.669701 0.0927678 -0.383264 -0.918968 
-0.039123 -0.014033 0.669701 0.0291162 -0.351052 -0.935903 
-0.037803 -0.014034 0.66973 -0.0671421 -0.321812 -0.94442 
-0.036468 -0.014029 0.669499 -0.131058 -0.290731 -0.947787 
-0.035135 -0.014025 0.669297 -0.0822959 -0.271656 -0.958869 
-0.033808 -0.014022 0.669181 0.00568108 -0.255356 -0.96683 
-0.032486 -0.014022 0.669181 0.0137888 -0.225378 -0.974174 
-0.031174 -0.014027 0.669383 0.112176 -0.207623 -0.971756 
-0.029863 -0.014031 0.669615 0.0413807 -0.205874 -0.977703 
-0.028536 -0.014029 0.669499 -0.087016 -0.204167 -0.975061 
-0.027203 -0.014023 0.669239 -0.122068 -0.219175 -0.96802 
-0.025875 -0.01402 0.669066 -0.117233 -0.248833 -0.961425 
-0.024548 -0.014017 0.668921 -0.1428 -0.333305 -0.931942 
-0.023218 -0.014011 0.668633 -0.0819953 -0.433552 -0.89739 
-0.021892 -0.014008 0.668489 0.0263829 -0.511912 -0.858633 
-0.020573 -0.014008 0.668518 0.0651448 -0.568834 -0.819868 
-0.01926 -0.014013 0.668748 0.122765 -0.601732 -0.789207 
-0.017946 -0.014019 0.669008 0.0500685 -0.630981 -0.774181 
-0.016627 -0.01402 0.669066 0.0304657 -0.651825 -0.757757 
-0.015302 -0.014017 0.668921 -0.0565827 -0.675528 -0.73516 
-0.013978 -0.014013 0.668748 -0.0753295 -0.676084 -0.732964 
-0.442378 -0.017617 0.768326 0.567038 -0.134962 -0.81256 
-0.396521 -0.017737 0.773578 0.62415 -0.0383768 -0.780361 
-0.395467 -0.017759 0.774505 0.723102 0.0287991 -0.69014 
-0.394608 -0.017789 0.775823 0.83311 0.10817 -0.542427 
-0.393943 -0.017828 0.777535 0.729659 0.157275 -0.665479 
-0.392881 -0.01785 0.778471 0.376358 0.126217 -0.917837 
-0.391481 -0.017856 0.778745 0.23385 0.0937969 -0.967738 
-0.389983 -0.017858 0.778823 0.0585328 0.0610744 -0.996416 
-0.388425 -0.017857 0.778784 -0.0517543 0.0412999 -0.997806 
-0.386771 -0.017851 0.77855 -0.179554 0.04838 -0.982558 
-0.38506 -0.017843 0.778198 -0.243768 -0.0107926 -0.969774 
-0.383254 -0.017831 0.777652 -0.45359 0.0237824 -0.890893 
-0.380878 -0.017791 0.775939 -0.598208 0.0220817 -0.801036 
-0.378361 -0.017745 0.773925 -0.578191 0.0263757 -0.815475 
-0.376157 -0.017714 0.772537 -0.506265 -0.0151183 -0.862246 
-0.374072 -0.017687 0.771384 -0.459953 -0.0203252 -0.887711 
-0.372068 -0.017664 0.770388 -0.485605 -0.00649324 -0.874154 
-0.369922 -0.017634 0.769089 -0.575103 -0.0584961 -0.815987 
-0.367546 -0.017593 0.7673 -0.647229 -0.0812873 -0.757949 
-0.364822 -0.017535 0.764764 -0.618127 -0.132115 -0.774897 
-0.362578 -0.0175 0.763221 -0.508526 -0.11463 -0.853382 
-0.360663 -0.01748 0.762358 -0.427117 -0.0976251 -0.898911 
-0.358717 -0.017459 0.761422 -0.515611 -0.110932 -0.849612 
-0.356478 -0.017423 0.759855 -0.609985 -0.103595 -0.785612 
-0.354075 -0.017378 0.757923 -0.641696 -0.117859 -0.757849 
-0.351599 -0.01733 0.755817 -0.557413 -0.0809862 -0.826276 
-0.349663 -0.017308 0.754861 -0.380631 -0.0428371 -0.923734 
-0.347902 -0.017295 0.754273 -0.342432 -0.0336528 -0.93894 
-0.346076 -0.017278 0.75354 -0.36032 -0.0157252 -0.932696 
-0.344253 -0.017261 0.752808 -0.375575 -0.00732843 -0.926763 
-0.342434 -0.017244 0.752078 -0.450445 -0.0281223 -0.892361 
-0.340404 -0.017217 0.750876 -0.423604 -0.0997893 -0.900334 
-0.338626 -0.017202 0.750222 -0.25388 -0.122861 -0.959401 
-0.337047 -0.017197 0.750005 -0.0916162 -0.130866 -0.987158 
-0.335582 -0.017198 0.750041 -0.00564392 -0.134032 -0.990961 
-0.33402 -0.017194 0.749859 0.0987845 -0.182075 -0.97831 
-0.332652 -0.017199 0.750113 0.297513 -0.173796 -0.938766 
-0.331444 -0.017214 0.750731 0.313406 -0.139009 -0.93939 
-0.330105 -0.017221 0.751058 0.464481 -0.137777 -0.8748 
-0.329116 -0.017247 0.752188 0.729686 -0.213936 -0.649454 
-0.328396 -0.017287 0.753943 0.828775 -0.09393 -0.551642 
-0.332032 -0.018573 0.81003 -0.0198121 -0.860106 -0.50973 
-0.330847 -0.018596 0.811047 -0.0653479 -0.841679 -0.53601 
-0.329177 -0.018593 0.810877 -0.0983297 -0.876847 -0.470606 
-0.327251 -0.018574 0.810072 -0.196478 -0.792539 -0.577303 
-0.324955 -0.018534 0.808341 -0.148314 -0.692283 -0.706221 
-0.323157 -0.018523 0.807836 0.278168 -0.545663 -0.79049 
-0.321712 -0.018532 0.808214 0.48389 -0.536765 -0.691184 
-0.32097 -0.018581 0.810369 0.514742 -0.683878 -0.517061 
-0.319787 -0.018605 0.811429 0.210585 -0.687068 -0.695408 
-0.318302 -0.018612 0.811726 0.179519 -0.661778 -0.727889 
-0.316964 -0.018628 0.812407 0.0577918 -0.670821 -0.739364 
-0.315162 -0.018616 0.811896 -0.0870715 -0.664045 -0.742605 
-0.313296 -0.0186 0.811217 -0.262576 -0.614474 -0.743959 
-0.311434 -0.018585 0.810538 -0.219938 -0.664624 -0.714074 
-0.309607 -0.018571 0.809945 -0.141817 -0.637711 -0.757108 
-0.307991 -0.01857 0.809903 -0.0830472 -0.617329 -0.78231 
-0.30636 -0.018568 0.809818 -0.0963849 -0.589518 -0.801984 
-0.304713 -0.018565 0.809692 -0.24036 -0.398324 -0.885192 
-0.302782 -0.018545 0.808805 -0.150052 -0.352827 -0.923579 
-0.301107 -0.01854 0.808594 0.182929 -0.566616 -0.80342 
-0.299713 -0.018553 0.809142 0.353935 -0.543671 -0.761021 
-0.298365 -0.018568 0.809818 0.245655 -0.539526 -0.805336 
-0.29689 -0.018576 0.810157 0.184919 -0.50097 -0.845478 
-0.295429 -0.018585 0.810538 0.317793 -0.475307 -0.820422 
-0.293982 -0.018595 0.810962 0.335123 -0.445394 -0.830251 
-0.29261 -0.018609 0.811599 0.256072 -0.440938 -0.860233 
-0.291145 -0.018618 0.811981 0.241062 -0.434854 -0.867636 
-0.289648 -0.018625 0.812279 0.20984 -0.454814 -0.865512 
-0.288255 -0.018638 0.812875 0.0799174 -0.416168 -0.905769 
-0.2865 -0.018629 0.812449 -0.205296 -0.475877 -0.855216 
-0.284508 -0.018603 0.811344 -0.444574 -0.4409 -0.779719 
-0.282374 -0.018568 0.809818 -0.5906 -0.440735 -0.675976 
-0.27965 -0.018494 0.806575 -0.361043 -0.579239 -0.730842 
-0.27774 -0.018473 0.805653 -0.175177 -0.659491 -0.731016 
-0.276048 -0.018466 0.80536 -0.146246 -0.661518 -0.735531 
-0.274344 -0.018458 0.805025 -0.229493 -0.661874 -0.713621 
-0.27233 -0.01843 0.803773 -0.404222 -0.549326 -0.731331 
-0.270239 -0.018395 0.802276 -0.435637 -0.454823 -0.77676 
-0.268391 -0.018377 0.801488 -0.399161 -0.457139 -0.794792 
-0.266546 -0.018359 0.800702 -0.387394 -0.47206 -0.791887 
-0.264651 -0.018338 0.799752 -0.381489 -0.492442 -0.782283 
-0.262747 -0.018315 0.798763 -0.447122 -0.536527 -0.715696 
-0.260686 -0.018281 0.797285 -0.562833 -0.528026 -0.635931 
-0.258235 -0.018219 0.794588 -0.649518 -0.324147 -0.68779 
-0.256141 -0.018182 0.792963 -0.420652 -0.306123 -0.854015 
-0.254367 -0.018167 0.792315 -0.129509 -0.274818 -0.952734 
-0.25279 -0.018166 0.792274 -0.0309463 -0.335733 -0.941449 
-0.251148 -0.01816 0.792031 -0.211076 -0.369223 -0.905053 
-0.249381 -0.018146 0.791384 -0.366356 -0.339283 -0.866413 
-0.247565 -0.018127 0.790577 -0.421637 -0.324855 -0.846576 
-0.245728 -0.018107 0.789692 -0.425061 -0.305861 -0.851922 
-0.243933 -0.018089 0.788928 -0.371997 -0.310433 -0.874785 
-0.242215 -0.018077 0.788407 -0.332842 -0.309837 -0.890627 
-0.240365 -0.018055 0.787446 -0.476321 -0.327185 -0.81613 
-0.238398 -0.018024 0.786088 -0.549064 -0.360425 -0.754071 
-0.236319 -0.017984 0.784339 -0.58673 -0.386113 -0.711804 
-0.234213 -0.017941 0.782479 -0.581387 -0.325475 -0.745691 
-0.232176 -0.017903 0.780824 -0.54249 -0.240755 -0.804824 
-0.230286 -0.017876 0.779646 -0.458257 -0.143818 -0.877107 
-0.228575 -0.017863 0.779058 -0.304089 -0.106504 -0.946672 
-0.226945 -0.017856 0.778745 -0.43769 -0.144925 -0.887369 
-0.225079 -0.01783 0.777613 -0.523256 -0.0874392 -0.847678 
-0.223253 -0.017807 0.7766 -0.393856 -0.0538746 -0.917592 
-0.221586 -0.017796 0.776134 -0.319169 -0.0425836 -0.946741 
-0.219845 -0.017779 0.775396 -0.217008 -0.0321725 -0.97564 
-0.218259 -0.017775 0.775202 -0.166279 -0.182928 -0.968963 
-0.216663 -0.017769 0.77497 -0.227833 -0.208471 -0.951121 
-0.214982 -0.017757 0.774428 -0.309538 -0.278606 -0.909156 
-0.213283 -0.017743 0.77381 -0.411878 -0.3246 -0.851464 
-0.21147 -0.017719 0.772768 -0.394689 -0.375679 -0.838503 
-0.209766 -0.017704 0.772114 -0.28681 -0.450068 -0.845683 
-0.208003 -0.017683 0.771231 -0.159889 -0.501673 -0.850153 
-0.206511 -0.017686 0.771346 -0.0525123 -0.520593 -0.852189 
-0.204917 -0.01768 0.771077 -0.0943775 -0.513746 -0.852735 
-0.203354 -0.017677 0.770924 0.00120266 -0.527381 -0.849628 
-0.201872 -0.01768 0.771077 0.057917 -0.535571 -0.842502 
-0.200349 -0.01768 0.771077 0.00571567 -0.555827 -0.831278 
-0.198846 -0.017682 0.771154 -0.0560259 -0.544219 -0.83707 
-0.197294 -0.017679 0.771039 -0.17917 -0.396183 -0.900521 
-0.195626 -0.017666 0.770464 -0.0779483 -0.500688 -0.862111 
-0.194114 -0.017667 0.770503 -0.0396043 -0.462737 -0.88561 
-0.192526 -0.017661 0.770235 -0.127226 -0.407997 -0.904075 
-0.190938 -0.017655 0.769967 -0.146251 -0.403125 -0.903383 
-0.189343 -0.017648 0.769661 -0.110723 -0.429585 -0.896213 
-0.187786 -0.017644 0.769508 -0.0507211 -0.44438 -0.894401 
-0.186229 -0.017641 0.769356 -0.0867723 -0.416334 -0.905062 
-0.184673 -0.017637 0.769203 -0.114124 -0.375052 -0.919952 
-0.1831 -0.017632 0.768974 -0.143786 -0.329161 -0.933262 
-0.181492 -0.017623 0.768593 -0.0935778 -0.311774 -0.945537 
-0.179956 -0.017621 0.768517 -0.0260174 -0.309874 -0.950422 
-0.178438 -0.017621 0.768517 -0.0347321 -0.323363 -0.945637 
-0.176912 -0.01762 0.768479 -0.0610912 -0.348469 -0.935327 
-0.17536 -0.017617 0.768326 -0.0318953 -0.364253 -0.930754 
-0.173834 -0.017616 0.768288 0.0293646 -0.359532 -0.932671 
-0.172309 -0.017615 0.76825 0.100786 -0.33558 -0.936605 
-0.170851 -0.017621 0.768517 0.177248 -0.31877 -0.931112 
-0.169392 -0.017627 0.768784 0.190244 -0.307904 -0.932203 
-0.167966 -0.017637 0.769203 0.229849 -0.293411 -0.927944 
-0.166538 -0.017647 0.769623 0.284673 -0.263174 -0.921792 
-0.165133 -0.017659 0.770158 0.308935 -0.235411 -0.921488 
-0.163693 -0.017668 0.770541 0.285227 -0.212194 -0.934676 
-0.162268 -0.017678 0.771001 0.31224 -0.207954 -0.926964 
-0.160866 -0.017691 0.771576 0.419952 -0.212916 -0.882217 
-0.159533 -0.017713 0.772499 0.456415 -0.217659 -0.862734 
-0.158149 -0.017729 0.773192 0.335517 -0.220292 -0.915915 
-0.156709 -0.017738 0.773617 0.253618 -0.209434 -0.94436 
-0.155235 -0.017744 0.773887 0.233278 -0.185502 -0.954553 
-0.153807 -0.017756 0.774389 0.283094 -0.14499 -0.948069 
-0.152384 -0.017768 0.774931 0.424091 -0.0854246 -0.901582 
-0.151058 -0.017792 0.775978 0.601517 -0.0902382 -0.793747 
-0.14972 -0.017816 0.776989 0.629735 -0.0852844 -0.772115 
-0.148372 -0.017838 0.777964 0.609117 -0.0563628 -0.791075 
-0.147013 -0.017859 0.778902 0.536703 -0.05016 -0.842279 
-0.145621 -0.017877 0.779685 0.509092 -0.0931491 -0.855657 
-0.144241 -0.017897 0.780548 0.528058 -0.146085 -0.836549 
-0.142858 -0.017917 0.781414 0.548221 -0.184763 -0.815669 
-0.141493 -0.01794 0.7824 0.436397 -0.25903 -0.861662 
-0.140019 -0.017949 0.782795 0.400711 -0.334251 -0.853058 
-0.138634 -0.017969 0.783705 0.469114 -0.437523 -0.767141 
-0.137253 -0.017991 0.784656 0.521728 -0.42884 -0.737493 
-0.101099 -0.014568 0.635345 0.112913 0.0157416 -0.99348 
-0.099881 -0.014573 0.635579 0.13628 -0.0317296 -0.990162 
-0.09863 -0.014574 0.635605 0.145091 -0.0806936 -0.986122 
-0.097415 -0.01458 0.635866 0.180533 -0.118569 -0.976396 
-0.096195 -0.014585 0.636101 0.179118 -0.14882 -0.972507 
-0.09497 -0.01459 0.63631 0.122392 -0.165918 -0.978515 
-0.093718 -0.014591 0.636336 0.13648 -0.216117 -0.966782 
-0.092495 -0.014596 0.636571 0.265534 -0.320494 -0.909272 
-0.091321 -0.014609 0.637146 0.349387 -0.411009 -0.842022 
-0.090133 -0.014621 0.637644 0.523005 -0.433852 -0.733648 
-0.089064 -0.014652 0.639011 0.73199 -0.341253 -0.589693 
-0.088017 -0.014688 0.640568 0.744251 -0.327758 -0.58195 
-0.086942 -0.01472 0.641974 0.787007 -0.378447 -0.487235 
-0.085988 -0.014774 0.644321 0.827334 -0.469889 -0.307772 
-0.085044 -0.014831 0.646821 0.794799 -0.423032 -0.435131 
-0.083956 -0.014864 0.648281 0.589276 -0.444771 -0.674487 
-0.082783 -0.014884 0.649123 0.460623 -0.516481 -0.721854 
-0.081576 -0.014897 0.649721 0.399452 -0.456883 -0.794793 
-0.080364 -0.014911 0.650293 0.398213 -0.433457 -0.808419 
-0.079163 -0.014926 0.650976 0.366394 -0.401538 -0.839359 
-0.07005 -0.01518 0.662038 0.554286 -0.449655 -0.700412 
-0.068828 -0.015199 0.662859 0.51411 -0.46776 -0.718952 
-0.067615 -0.01522 0.663795 0.438521 -0.453501 -0.77591 
-0.066358 -0.015233 0.664336 0.370125 -0.456094 -0.809312 
-0.065107 -0.015247 0.664962 0.306585 -0.474523 -0.825126 
-0.063841 -0.015258 0.665448 0.166474 -0.494348 -0.853174 
-0.062546 -0.015263 0.665648 0.0775351 -0.480967 -0.873303 
-0.061247 -0.015267 0.665819 0.0663668 -0.452426 -0.889329 
-0.05994 -0.015268 0.665905 0.100449 -0.428333 -0.898021 
-0.058643 -0.015273 0.666105 0.0794101 -0.425517 -0.90146 
-0.057328 -0.015273 0.666105 0.116347 -0.416103 -0.901843 
-0.056032 -0.015278 0.666334 0.148883 -0.385552 -0.910595 
-0.054732 -0.015283 0.666535 0.14142 -0.369546 -0.918388 
-0.053423 -0.015285 0.666621 0.210636 -0.414428 -0.885371 
-0.052149 -0.015297 0.667166 0.317268 -0.455799 -0.831618 
-0.050878 -0.015311 0.667769 0.307236 -0.485316 -0.818581 
-0.0496 -0.015324 0.668316 0.231256 -0.478946 -0.846836 
-0.048301 -0.01533 0.668604 0.171697 -0.464394 -0.868826 
-0.047001 -0.015337 0.668892 0.138113 -0.450998 -0.881774 
-0.045698 -0.015343 0.669152 0.128804 -0.432986 -0.892151 
-0.044382 -0.015345 0.669239 0.167525 -0.403218 -0.899639 
-0.043083 -0.015353 0.669586 0.190141 -0.367969 -0.91019 
-0.041779 -0.01536 0.669875 0.133633 -0.344021 -0.929404 
-0.04047 -0.015365 0.670107 0.0414504 -0.327627 -0.943898 
-0.039149 -0.015366 0.670135 -0.0013093 -0.281249 -0.959634 
-0.037819 -0.015363 0.67002 -0.0945479 -0.23837 -0.966561 
-0.036483 -0.015358 0.669788 -0.144423 -0.205673 -0.967905 
-0.035149 -0.015352 0.669557 -0.114552 -0.20695 -0.971622 
-0.033818 -0.015348 0.669383 -0.0405355 -0.205754 -0.977764 
-0.032495 -0.015348 0.669354 0.0503146 -0.203855 -0.977707 
-0.031177 -0.01535 0.669441 0.0703879 -0.188354 -0.979576 
-0.029861 -0.015353 0.669586 0.066424 -0.181451 -0.981154 
-0.028538 -0.015352 0.669557 -0.039764 -0.189556 -0.981064 
-0.027205 -0.015346 0.669297 -0.124484 -0.229435 -0.965331 
-0.025879 -0.015344 0.669181 -0.0584218 -0.291438 -0.954804 
-0.024556 -0.015342 0.669123 -0.0323976 -0.377836 -0.925306 
-0.023237 -0.015344 0.669181 0.00194407 -0.45576 -0.890101 
-0.021916 -0.015344 0.66921 0.0669364 -0.530959 -0.84475 
-0.020603 -0.01535 0.66947 0.142756 -0.575449 -0.805282 
-0.019292 -0.015359 0.669846 0.161484 -0.610618 -0.775286 
-0.017977 -0.015366 0.670164 0.0943892 -0.628431 -0.772117 
-0.016656 -0.015367 0.670222 0.00948701 -0.647614 -0.761909 
-0.015334 -0.01537 0.670309 -0.0258198 -0.661426 -0.749566 
-0.014008 -0.015366 0.670164 -0.0739361 -0.601615 -0.795357 
-0.012681 -0.015362 0.669991 -0.202307 -0.568343 -0.797533 
