ply
format ascii 1.0
comment VCGLIB generated
element vertex 1391
property float x
property float y
property float z
property float nx
property float ny
property float nz
element face 0
property list uchar int vertex_indices
end_header
-0.048731 0.098792 0.553514 0 0 0 
-0.047646 0.09881 0.553613 0 0 0 
-0.04656 0.098824 0.553692 0 0 0 
-0.045455 0.098799 0.553554 0 0 0 
-0.044362 0.098799 0.553554 0 0 0 
-0.043267 0.098796 0.553534 0 0 0 
-0.042164 0.098771 0.553396 0 0 0 
-0.041058 0.098739 0.553218 0 0 0 
-0.039943 0.098683 0.552902 0 0 0 
-0.038815 0.098592 0.55239 0 0 0 
-0.037678 0.098472 0.551722 0 0 0 
-0.036511 0.098263 0.550547 0 0 0 
-0.035371 0.098116 0.549727 0 0 0 
-0.034265 0.098057 0.549396 0 0 0 
-0.033153 0.097977 0.548948 0 0 0 
-0.032058 0.097943 0.548754 0 0 0 
-0.030964 0.097912 0.548579 0 0 0 
-0.02987 0.097873 0.548366 0 0 0 
-0.028789 0.09788 0.548405 0 0 0 
-0.027712 0.097901 0.548521 0 0 0 
-0.026635 0.097925 0.548657 0 0 0 
-0.025562 0.097963 0.548871 0 0 0 
0.013296 0.096802 0.542362 0 0 0 
0.014356 0.096727 0.541945 0 0 0 
0.015397 0.096549 0.540943 0 0 0 
0.016426 0.096317 0.539644 0 0 0 
0.017459 0.096139 0.538651 0 0 0 
0.018506 0.096049 0.538146 0 0 0 
0.019558 0.095999 0.537866 0 0 0 
0.0206 0.095906 0.537344 0 0 0 
0.021648 0.09585 0.537028 0 0 0 
0.02266 0.095644 0.535877 0 0 0 
0.023671 0.095453 0.534805 0 0 0 
0.024703 0.095361 0.534289 0 0 0 
0.025723 0.09523 0.533553 0 0 0 
0.02675 0.095135 0.533021 0 0 0 
0.027778 0.095053 0.532564 0 0 0 
0.028804 0.094968 0.532089 0 0 0 
0.029825 0.094874 0.53156 0 0 0 
0.030838 0.09476 0.530923 0 0 0 
0.031858 0.094676 0.53045 0 0 0 
0.032887 0.094624 0.53016 0 0 0 
0.033914 0.094569 0.529852 0 0 0 
0.034947 0.094534 0.529653 0 0 0 
0.035987 0.094517 0.529563 0 0 0 
0.037014 0.094469 0.529292 0 0 0 
0.038037 0.094414 0.528985 0 0 0 
0.039069 0.094385 0.528822 0 0 0 
0.040103 0.094359 0.528678 0 0 0 
0.041147 0.094359 0.528678 0 0 0 
0.042183 0.094343 0.528588 0 0 0 
0.043233 0.094356 0.52866 0 0 0 
0.044304 0.094414 0.528985 0 0 0 
0.045366 0.09445 0.529183 0 0 0 
0.06429 0.096186 0.538913 0 0 0 
0.065386 0.096233 0.539175 0 0 0 
0.066483 0.09628 0.539438 0 0 0 
0.067508 0.096223 0.539119 0 0 0 
0.068566 0.096213 0.539063 0 0 0 
0.069626 0.096206 0.539025 0 0 0 
0.070734 0.096266 0.539363 0 0 0 
0.071902 0.096404 0.540133 0 0 0 
0.07291 0.096327 0.539701 0 0 0 
0.073857 0.096173 0.538838 0 0 0 
0.074271 0.095338 0.53416 0 0 0 
0.074867 0.094757 0.530904 0 0 0 
0.07572 0.094514 0.529545 0 0 0 
0.076653 0.094376 0.528768 0 0 0 
0.077676 0.09435 0.528624 0 0 0 
0.078683 0.094305 0.528372 0 0 0 
-0.569908 0.168359 0.953838 0 0 0 
-0.285907 0.131339 0.744102 0 0 0 
-0.26413 0.12931 0.732606 0 0 0 
-0.248983 0.131239 0.743531 0 0 0 
-0.247147 0.131044 0.742427 0 0 0 
-0.245399 0.130893 0.741575 0 0 0 
-0.24383 0.130837 0.741256 0 0 0 
-0.242343 0.130825 0.741185 0 0 0 
-0.240891 0.130831 0.741221 0 0 0 
-0.224681 0.131624 0.745712 0 0 0 
-0.22352 0.131808 0.746754 0 0 0 
-0.222399 0.132017 0.747942 0 0 0 
-0.221061 0.1321 0.748412 0 0 0 
-0.219785 0.132221 0.749099 0 0 0 
-0.218485 0.13233 0.749714 0 0 0 
-0.217204 0.132452 0.750404 0 0 0 
-0.215921 0.132574 0.751095 0 0 0 
-0.214552 0.132644 0.751495 0 0 0 
-0.21313 0.132683 0.751714 0 0 0 
-0.211769 0.13276 0.752151 0 0 0 
-0.210467 0.132876 0.752808 0 0 0 
-0.209204 0.133018 0.753613 0 0 0 
-0.207878 0.133122 0.7542 0 0 0 
-0.2066 0.133258 0.754971 0 0 0 
-0.1175 0.097626 0.5531 0 0 0 
-0.116292 0.097529 0.552548 0 0 0 
-0.115184 0.097515 0.552469 0 0 0 
-0.114118 0.097536 0.552587 0 0 0 
-0.113007 0.097518 0.552489 0 0 0 
-0.111796 0.097414 0.551899 0 0 0 
-0.110604 0.097324 0.551388 0 0 0 
-0.109391 0.097213 0.550762 0 0 0 
-0.07451 0.095714 0.542267 0 0 0 
-0.073573 0.095889 0.543255 0 0 0 
-0.072543 0.095946 0.543579 0 0 0 
-0.071537 0.096037 0.544094 0 0 0 
-0.07057 0.096182 0.544916 0 0 0 
-0.069572 0.09629 0.54553 0 0 0 
-0.068548 0.096365 0.545952 0 0 0 
-0.067503 0.096412 0.546222 0 0 0 
-0.066488 0.096504 0.546742 0 0 0 
-0.06548 0.09661 0.54734 0 0 0 
-0.064483 0.096736 0.548056 0 0 0 
-0.06343 0.09678 0.548308 0 0 0 
-0.062374 0.096821 0.548541 0 0 0 
-0.061332 0.096887 0.548909 0 0 0 
-0.060338 0.097031 0.549727 0 0 0 
-0.059359 0.097207 0.550723 0 0 0 
-0.058345 0.097328 0.551408 0 0 0 
-0.057309 0.097418 0.551918 0 0 0 
-0.056231 0.097438 0.552036 0 0 0 
-0.055149 0.097452 0.552115 0 0 0 
-0.054087 0.097504 0.55241 0 0 0 
-0.053029 0.097564 0.552745 0 0 0 
-0.051967 0.097619 0.55306 0 0 0 
-0.050886 0.09764 0.553179 0 0 0 
-0.0498 0.097654 0.553258 0 0 0 
-0.04871 0.097657 0.553277 0 0 0 
-0.047617 0.097657 0.553277 0 0 0 
-0.046521 0.097651 0.553238 0 0 0 
-0.045411 0.097612 0.553021 0 0 0 
-0.044311 0.097595 0.552922 0 0 0 
-0.043216 0.097588 0.552883 0 0 0 
-0.042107 0.097546 0.552646 0 0 0 
-0.040983 0.09747 0.552213 0 0 0 
-0.039832 0.097321 0.551369 0 0 0 
-0.038663 0.09712 0.550234 0 0 0 
-0.037535 0.097014 0.549629 0 0 0 
-0.036406 0.096897 0.548968 0 0 0 
-0.035291 0.096811 0.548482 0 0 0 
-0.034194 0.09677 0.54825 0 0 0 
-0.033103 0.096746 0.548114 0 0 0 
-0.032026 0.096763 0.548211 0 0 0 
-0.030947 0.096773 0.548269 0 0 0 
-0.029861 0.096763 0.548211 0 0 0 
-0.02878 0.096767 0.54823 0 0 0 
-0.027707 0.096801 0.548424 0 0 0 
-0.026631 0.096825 0.54856 0 0 0 
-0.025557 0.096863 0.548773 0 0 0 
-0.024482 0.096897 0.548968 0 0 0 
-0.023412 0.096952 0.549279 0 0 0 
-0.012411 0.095758 0.542514 0 0 0 
-0.011337 0.095734 0.542381 0 0 0 
-0.010264 0.095721 0.542305 0 0 0 
-0.009194 0.095731 0.542362 0 0 0 
-0.008125 0.095754 0.542495 0 0 0 
-0.007056 0.095781 0.542647 0 0 0 
0.011168 0.095852 0.543046 0 0 0 
0.012231 0.095778 0.542628 0 0 0 
0.013288 0.095677 0.542059 0 0 0 
0.014344 0.095577 0.541491 0 0 0 
0.015378 0.095361 0.540265 0 0 0 
0.016409 0.095152 0.539081 0 0 0 
0.017448 0.095013 0.538295 0 0 0 
0.01849 0.094908 0.537698 0 0 0 
0.019537 0.094835 0.537288 0 0 0 
0.020576 0.094734 0.536711 0 0 0 
0.021621 0.094668 0.53634 0 0 0 
0.022634 0.094478 0.535266 0 0 0 
0.023664 0.094368 0.534639 0 0 0 
0.024701 0.094296 0.534234 0 0 0 
0.025731 0.094205 0.533719 0 0 0 
0.026757 0.094108 0.533168 0 0 0 
0.027787 0.094031 0.532729 0 0 0 
0.028814 0.09395 0.532271 0 0 0 
0.029839 0.093869 0.531815 0 0 0 
0.030857 0.093769 0.53125 0 0 0 
0.031874 0.093676 0.530723 0 0 0 
0.032902 0.093619 0.530396 0 0 0 
0.033934 0.093577 0.53016 0 0 0 
0.034971 0.093552 0.530015 0 0 0 
0.036009 0.093529 0.529888 0 0 0 
0.037035 0.093478 0.529599 0 0 0 
0.038055 0.093414 0.529237 0 0 0 
0.039085 0.093379 0.529039 0 0 0 
0.040122 0.09336 0.52893 0 0 0 
0.041172 0.093373 0.529003 0 0 0 
0.042221 0.093382 0.529057 0 0 0 
0.043271 0.093395 0.529129 0 0 0 
0.044333 0.09343 0.529328 0 0 0 
0.045394 0.093462 0.529508 0 0 0 
0.064335 0.095188 0.539288 0 0 0 
0.065429 0.095231 0.539531 0 0 0 
0.06653 0.095281 0.539813 0 0 0 
0.067562 0.095235 0.53955 0 0 0 
0.068638 0.095248 0.539625 0 0 0 
0.06971 0.095258 0.539682 0 0 0 
0.070843 0.095347 0.540189 0 0 0 
0.072042 0.095524 0.541189 0 0 0 
0.072943 0.095304 0.539945 0 0 0 
0.073847 0.095096 0.538763 0 0 0 
0.074302 0.094322 0.534381 0 0 0 
0.074854 0.093692 0.530814 0 0 0 
0.075731 0.093481 0.529617 0 0 0 
0.076633 0.093306 0.528624 0 0 0 
0.077674 0.093303 0.528606 0 0 0 
0.078704 0.093287 0.528516 0 0 0 
-0.579027 0.16914 0.9691 0 0 0 
-0.25459 0.128893 0.738502 0 0 0 
-0.2537 0.129182 0.740159 0 0 0 
-0.252552 0.129343 0.741079 0 0 0 
-0.251473 0.129541 0.742214 0 0 0 
-0.250259 0.129671 0.742961 0 0 0 
-0.248732 0.12964 0.742783 0 0 0 
-0.247053 0.129528 0.742143 0 0 0 
-0.245329 0.129392 0.741362 0 0 0 
-0.243679 0.129293 0.740796 0 0 0 
-0.242181 0.129275 0.74069 0 0 0 
-0.240707 0.129268 0.740654 0 0 0 
-0.225817 0.129957 0.744602 0 0 0 
-0.224573 0.130089 0.745354 0 0 0 
-0.223423 0.130276 0.74643 0 0 0 
-0.222228 0.13044 0.747366 0 0 0 
-0.220816 0.130477 0.747582 0 0 0 
-0.219562 0.13061 0.74834 0 0 0 
-0.218305 0.130742 0.749099 0 0 0 
-0.217078 0.130894 0.749968 0 0 0 
-0.215816 0.131027 0.750731 0 0 0 
-0.214469 0.13111 0.751204 0 0 0 
-0.213068 0.13116 0.751495 0 0 0 
-0.211717 0.131243 0.751969 0 0 0 
-0.210416 0.131358 0.752626 0 0 0 
-0.209143 0.131492 0.753394 0 0 0 
-0.207807 0.131588 0.753943 0 0 0 
-0.206529 0.131722 0.754714 0 0 0 
-0.117467 0.096506 0.552942 0 0 0 
-0.116263 0.096414 0.55241 0 0 0 
-0.11518 0.096421 0.552449 0 0 0 
-0.114114 0.096441 0.552567 0 0 0 
-0.113002 0.096424 0.552469 0 0 0 
-0.111808 0.096335 0.551958 0 0 0 
-0.110608 0.096239 0.551408 0 0 0 
-0.109449 0.096177 0.551055 0 0 0 
-0.074677 0.094856 0.543484 0 0 0 
-0.073629 0.094889 0.543674 0 0 0 
-0.072586 0.094929 0.543903 0 0 0 
-0.071578 0.095016 0.5444 0 0 0 
-0.070604 0.095153 0.545185 0 0 0 
-0.069601 0.095253 0.54576 0 0 0 
-0.068579 0.09533 0.546202 0 0 0 
-0.06752 0.095357 0.546356 0 0 0 
-0.066499 0.095441 0.546838 0 0 0 
-0.065482 0.095532 0.547359 0 0 0 
-0.06449 0.095664 0.548114 0 0 0 
-0.063443 0.095718 0.548424 0 0 0 
-0.062394 0.095769 0.548715 0 0 0 
-0.061364 0.095854 0.549201 0 0 0 
-0.060389 0.096027 0.550195 0 0 0 
-0.059412 0.096204 0.551212 0 0 0 
-0.058372 0.096283 0.551663 0 0 0 
-0.057323 0.096352 0.552056 0 0 0 
-0.056239 0.096362 0.552115 0 0 0 
-0.055158 0.096379 0.552213 0 0 0 
-0.054097 0.096431 0.552508 0 0 0 
-0.05304 0.096493 0.552863 0 0 0 
-0.051978 0.096548 0.553179 0 0 0 
-0.050895 0.096565 0.553277 0 0 0 
-0.0498 0.096561 0.553258 0 0 0 
-0.048701 0.096548 0.553179 0 0 0 
-0.047607 0.096544 0.553159 0 0 0 
-0.04651 0.096534 0.5531 0 0 0 
-0.045398 0.096493 0.552863 0 0 0 
-0.0443 0.096479 0.552784 0 0 0 
-0.043198 0.096455 0.552646 0 0 0 
-0.04208 0.096393 0.552292 0 0 0 
-0.04096 0.096324 0.551899 0 0 0 
-0.039818 0.096198 0.551173 0 0 0 
-0.038661 0.096027 0.550195 0 0 0 
-0.037532 0.095918 0.549571 0 0 0 
-0.036399 0.095793 0.548851 0 0 0 
-0.035286 0.095715 0.548405 0 0 0 
-0.034189 0.095674 0.548172 0 0 0 
-0.033092 0.095633 0.54794 0 0 0 
-0.032007 0.095623 0.547882 0 0 0 
-0.030925 0.095623 0.547882 0 0 0 
-0.029843 0.095623 0.547882 0 0 0 
-0.028768 0.095647 0.548017 0 0 0 
-0.027697 0.095684 0.54823 0 0 0 
-0.026618 0.095698 0.548308 0 0 0 
-0.025546 0.095738 0.548541 0 0 0 
-0.024475 0.095782 0.548793 0 0 0 
-0.023402 0.09583 0.549065 0 0 0 
-0.012409 0.094673 0.542438 0 0 0 
-0.011336 0.094657 0.542343 0 0 0 
-0.010262 0.094633 0.542211 0 0 0 
-0.009192 0.094637 0.54223 0 0 0 
-0.008124 0.094667 0.5424 0 0 0 
-0.007054 0.094686 0.542514 0 0 0 
-0.005984 0.094706 0.542628 0 0 0 
-0.004914 0.094723 0.542723 0 0 0 
-0.003844 0.094759 0.542932 0 0 0 
-0.002772 0.094789 0.543103 0 0 0 
-0.001701 0.094826 0.543313 0 0 0 
-0.000628 0.094852 0.543465 0 0 0 
0.000445 0.094889 0.543674 0 0 0 
0.00152 0.094952 0.544037 0 0 0 
0.002594 0.094936 0.543941 0 0 0 
0.010086 0.094686 0.542514 0 0 0 
0.011157 0.094686 0.542514 0 0 0 
0.012218 0.094604 0.54204 0 0 0 
0.013272 0.094491 0.541396 0 0 0 
0.014319 0.094346 0.540566 0 0 0 
0.015352 0.094136 0.539363 0 0 0 
0.016386 0.093953 0.538314 0 0 0 
0.017427 0.093839 0.537661 0 0 0 
0.018467 0.093726 0.537009 0 0 0 
0.019511 0.093648 0.536563 0 0 0 
0.020544 0.093528 0.535877 0 0 0 
0.021588 0.093467 0.535525 0 0 0 
0.022616 0.093347 0.534842 0 0 0 
0.023656 0.093283 0.534473 0 0 0 
0.024697 0.093228 0.53416 0 0 0 
0.02573 0.093148 0.5337 0 0 0 
0.026754 0.093046 0.533113 0 0 0 
0.027784 0.092969 0.532674 0 0 0 
0.028809 0.092883 0.53218 0 0 0 
0.029842 0.092829 0.53187 0 0 0 
0.030866 0.092749 0.531414 0 0 0 
0.031887 0.092666 0.530941 0 0 0 
0.032919 0.092619 0.530668 0 0 0 
0.033951 0.092578 0.530432 0 0 0 
0.034994 0.092565 0.53036 0 0 0 
0.036038 0.092556 0.530305 0 0 0 
0.037068 0.092515 0.53007 0 0 0 
0.03809 0.092454 0.529725 0 0 0 
0.039123 0.092423 0.529545 0 0 0 
0.040163 0.09241 0.529472 0 0 0 
0.041217 0.092429 0.529581 0 0 0 
0.042264 0.092432 0.529599 0 0 0 
0.043314 0.092442 0.529653 0 0 0 
0.044374 0.09247 0.529816 0 0 0 
0.045434 0.092499 0.529979 0 0 0 
0.06442 0.094248 0.540001 0 0 0 
0.065532 0.094314 0.540378 0 0 0 
0.066638 0.09437 0.540698 0 0 0 
0.067652 0.094294 0.540265 0 0 0 
0.068798 0.094402 0.540887 0 0 0 
0.069954 0.094521 0.541567 0 0 0 
0.071113 0.09464 0.542248 0 0 0 
0.072226 0.094696 0.542571 0 0 0 
0.073057 0.094386 0.540792 0 0 0 
0.073865 0.094055 0.538894 0 0 0 
0.07424 0.09319 0.533939 0 0 0 
0.074879 0.092676 0.530995 0 0 0 
0.07579 0.092508 0.530033 0 0 0 
0.076745 0.092398 0.5294 0 0 0 
0.077777 0.092382 0.52931 0 0 0 
-0.588442 0.169945 0.984857 0 0 0 
-0.25808 0.126999 0.735978 0 0 0 
-0.256919 0.127144 0.736818 0 0 0 
-0.255854 0.127338 0.73794 0 0 0 
-0.254809 0.127544 0.739136 0 0 0 
-0.253797 0.127769 0.740442 0 0 0 
-0.252576 0.127891 0.74115 0 0 0 
-0.251413 0.128044 0.742036 0 0 0 
-0.250103 0.128124 0.742498 0 0 0 
-0.248613 0.128112 0.742427 0 0 0 
-0.246911 0.127989 0.741717 0 0 0 
-0.245223 0.127873 0.741044 0 0 0 
-0.243655 0.127818 0.740725 0 0 0 
-0.242158 0.1278 0.740619 0 0 0 
-0.240707 0.127806 0.740654 0 0 0 
-0.239279 0.127824 0.74076 0 0 0 
-0.237793 0.127812 0.74069 0 0 0 
-0.236421 0.127861 0.740973 0 0 0 
-0.235037 0.127904 0.741221 0 0 0 
-0.225546 0.128333 0.743709 0 0 0 
-0.224271 0.128444 0.744352 0 0 0 
-0.22308 0.128604 0.745282 0 0 0 
-0.221853 0.128747 0.746107 0 0 0 
-0.220475 0.128803 0.74643 0 0 0 
-0.219223 0.128933 0.747186 0 0 0 
-0.218105 0.129145 0.748412 0 0 0 
-0.216952 0.129338 0.749533 0 0 0 
-0.215722 0.129488 0.750404 0 0 0 
-0.214355 0.129557 0.750804 0 0 0 
-0.212975 0.12962 0.751167 0 0 0 
-0.211635 0.129708 0.751677 0 0 0 
-0.210314 0.129809 0.752261 0 0 0 
-0.209032 0.129935 0.752991 0 0 0 
-0.207706 0.130036 0.753577 0 0 0 
-0.206429 0.130169 0.754347 0 0 0 
-0.117408 0.095367 0.552666 0 0 0 
-0.116234 0.095299 0.552272 0 0 0 
-0.115151 0.095306 0.552312 0 0 0 
-0.114093 0.095333 0.552469 0 0 0 
-0.112994 0.095326 0.55243 0 0 0 
-0.111824 0.095258 0.552036 0 0 0 
-0.110592 0.095136 0.55133 0 0 0 
-0.109414 0.095059 0.550879 0 0 0 
-0.074816 0.093957 0.544495 0 0 0 
-0.073766 0.09399 0.544687 0 0 0 
-0.072717 0.094023 0.544878 0 0 0 
-0.071701 0.094103 0.545338 0 0 0 
-0.070724 0.094235 0.546106 0 0 0 
-0.069687 0.094292 0.546433 0 0 0 
-0.068635 0.094328 0.546645 0 0 0 
-0.067577 0.094358 0.546819 0 0 0 
-0.066534 0.094411 0.547128 0 0 0 
-0.065498 0.094475 0.547495 0 0 0 
-0.064483 0.094572 0.548056 0 0 0 
-0.063441 0.094632 0.548405 0 0 0 
-0.062416 0.094719 0.548909 0 0 0 
-0.061412 0.094843 0.549629 0 0 0 
-0.060475 0.095076 0.550977 0 0 0 
-0.059465 0.095201 0.551702 0 0 0 
-0.058398 0.095238 0.551918 0 0 0 
-0.057339 0.095289 0.552213 0 0 0 
-0.056249 0.095289 0.552213 0 0 0 
-0.055168 0.095306 0.552312 0 0 0 
-0.054114 0.09537 0.552686 0 0 0 
-0.053059 0.095435 0.55306 0 0 0 
-0.051993 0.095483 0.553336 0 0 0 
-0.050906 0.095493 0.553396 0 0 0 
-0.049806 0.095479 0.553317 0 0 0 
-0.048696 0.095445 0.553119 0 0 0 
-0.047588 0.095415 0.552942 0 0 0 
-0.04648 0.095381 0.552745 0 0 0 
-0.045363 0.095326 0.55243 0 0 0 
-0.044257 0.095296 0.552253 0 0 0 
-0.043152 0.095262 0.552056 0 0 0 
-0.04202 0.095167 0.551506 0 0 0 
-0.040897 0.095089 0.551055 0 0 0 
-0.039748 0.094944 0.550215 0 0 0 
-0.038608 0.094813 0.549454 0 0 0 
-0.037488 0.094722 0.548929 0 0 0 
-0.036368 0.094628 0.548385 0 0 0 
-0.035265 0.094575 0.548075 0 0 0 
-0.034166 0.094528 0.547804 0 0 0 
-0.033074 0.094498 0.54763 0 0 0 
-0.03199 0.094491 0.547591 0 0 0 
-0.030915 0.094511 0.547707 0 0 0 
-0.029829 0.094498 0.54763 0 0 0 
-0.028754 0.094518 0.547746 0 0 0 
-0.027683 0.094555 0.547959 0 0 0 
-0.026611 0.094588 0.548153 0 0 0 
-0.025541 0.094635 0.548424 0 0 0 
-0.024468 0.094675 0.548657 0 0 0 
-0.023396 0.094719 0.548909 0 0 0 
-0.022313 0.094722 0.548929 0 0 0 
-0.01349 0.093671 0.542837 0 0 0 
-0.012409 0.093599 0.542419 0 0 0 
-0.011335 0.093576 0.542286 0 0 0 
-0.010261 0.093553 0.542154 0 0 0 
-0.00919 0.093543 0.542097 0 0 0 
-0.008122 0.093576 0.542286 0 0 0 
-0.007052 0.093586 0.542343 0 0 0 
-0.005982 0.093602 0.542438 0 0 0 
-0.004912 0.093618 0.542533 0 0 0 
-0.003842 0.093651 0.542723 0 0 0 
-0.002771 0.093687 0.542932 0 0 0 
-0.0017 0.09373 0.543179 0 0 0 
-0.000628 0.093763 0.54337 0 0 0 
0.000445 0.093802 0.543598 0 0 0 
0.00152 0.093852 0.543884 0 0 0 
0.002593 0.093829 0.543751 0 0 0 
0.010078 0.093543 0.542097 0 0 0 
0.011147 0.09353 0.542021 0 0 0 
0.012203 0.093422 0.541396 0 0 0 
0.01325 0.093266 0.540491 0 0 0 
0.014298 0.093143 0.539776 0 0 0 
0.015337 0.092978 0.538819 0 0 0 
0.016373 0.092823 0.537922 0 0 0 
0.017414 0.092707 0.537251 0 0 0 
0.018452 0.092595 0.5366 0 0 0 
0.019496 0.092518 0.536155 0 0 0 
0.020532 0.092416 0.535562 0 0 0 
0.021576 0.092358 0.535229 0 0 0 
0.022607 0.092253 0.53462 0 0 0 
0.02365 0.092202 0.534326 0 0 0 
0.024693 0.092158 0.534068 0 0 0 
0.025732 0.092101 0.533737 0 0 0 
0.02676 0.092012 0.533223 0 0 0 
0.027798 0.091965 0.532948 0 0 0 
0.028831 0.091901 0.532582 0 0 0 
0.029865 0.091848 0.532271 0 0 0 
0.030892 0.091775 0.531851 0 0 0 
0.031909 0.091681 0.531305 0 0 0 
0.032945 0.091643 0.531086 0 0 0 
0.033982 0.091612 0.530904 0 0 0 
0.035024 0.091596 0.530814 0 0 0 
0.036068 0.091587 0.530759 0 0 0 
0.037105 0.091559 0.530596 0 0 0 
0.038124 0.09149 0.530196 0 0 0 
0.039155 0.091452 0.529979 0 0 0 
0.040201 0.091452 0.529979 0 0 0 
0.041256 0.091471 0.530088 0 0 0 
0.042307 0.09148 0.530142 0 0 0 
0.04336 0.091493 0.530215 0 0 0 
0.044413 0.091505 0.530287 0 0 0 
0.045467 0.091518 0.53036 0 0 0 
0.063371 0.093207 0.540152 0 0 0 
0.064465 0.093246 0.540378 0 0 0 
0.065576 0.093308 0.540736 0 0 0 
0.066678 0.093357 0.541019 0 0 0 
0.067697 0.093289 0.540623 0 0 0 
0.068882 0.093448 0.541548 0 0 0 
0.070042 0.093569 0.542248 0 0 0 
0.071192 0.093674 0.542856 0 0 0 
0.072287 0.093704 0.543027 0 0 0 
0.073124 0.093403 0.541283 0 0 0 
0.073469 0.092492 0.536006 0 0 0 
0.074174 0.092053 0.533462 0 0 0 
0.074943 0.091706 0.53145 0 0 0 
0.075905 0.091599 0.530832 0 0 0 
0.076911 0.091549 0.530541 0 0 0 
0.077926 0.091512 0.530323 0 0 0 
-0.598168 0.170777 1.00114 0 0 0 
-0.258031 0.125522 0.735839 0 0 0 
-0.256834 0.125647 0.736573 0 0 0 
-0.255683 0.125797 0.737449 0 0 0 
-0.254384 0.125874 0.737905 0 0 0 
-0.253398 0.126108 0.739277 0 0 0 
-0.252335 0.126307 0.740442 0 0 0 
-0.251137 0.12644 0.741221 0 0 0 
-0.249828 0.126519 0.741682 0 0 0 
-0.248435 0.126555 0.741894 0 0 0 
-0.246769 0.126452 0.741292 0 0 0 
-0.245177 0.126386 0.740902 0 0 0 
-0.243644 0.126349 0.74069 0 0 0 
-0.242135 0.126325 0.740548 0 0 0 
-0.240673 0.126325 0.740548 0 0 0 
-0.239267 0.126355 0.740725 0 0 0 
-0.237793 0.126349 0.74069 0 0 0 
-0.236399 0.126386 0.740902 0 0 0 
-0.235014 0.126428 0.74115 0 0 0 
-0.233584 0.126446 0.741256 0 0 0 
-0.232132 0.126452 0.741292 0 0 0 
-0.230855 0.126555 0.741894 0 0 0 
-0.229555 0.126646 0.742427 0 0 0 
-0.228242 0.126731 0.742925 0 0 0 
-0.226884 0.126792 0.743281 0 0 0 
-0.225589 0.126889 0.743852 0 0 0 
-0.224336 0.127011 0.744566 0 0 0 
-0.223112 0.127151 0.74539 0 0 0 
-0.2218 0.127243 0.745927 0 0 0 
-0.220422 0.127298 0.746251 0 0 0 
-0.219128 0.127402 0.746862 0 0 0 
-0.217895 0.127544 0.74769 0 0 0 
-0.216711 0.127716 0.748701 0 0 0 
-0.21543 0.127833 0.749388 0 0 0 
-0.214075 0.127907 0.749823 0 0 0 
-0.212759 0.128006 0.750404 0 0 0 
-0.21142 0.128093 0.750913 0 0 0 
-0.2101 0.128193 0.751495 0 0 0 
-0.208798 0.128305 0.752151 0 0 0 
-0.207444 0.128385 0.752626 0 0 0 
-0.206168 0.128516 0.753394 0 0 0 
-0.117534 0.094377 0.553258 0 0 0 
-0.116317 0.094276 0.552666 0 0 0 
-0.115213 0.094266 0.552607 0 0 0 
-0.114175 0.094309 0.552863 0 0 0 
-0.113079 0.094306 0.552843 0 0 0 
-0.111876 0.094212 0.552292 0 0 0 
-0.11058 0.094038 0.551271 0 0 0 
-0.109305 0.093878 0.550332 0 0 0 
-0.075928 0.092928 0.544763 0 0 0 
-0.074887 0.09297 0.545012 0 0 0 
-0.073821 0.092983 0.545089 0 0 0 
-0.072757 0.092999 0.545185 0 0 0 
-0.071711 0.093039 0.545415 0 0 0 
-0.070706 0.093134 0.545972 0 0 0 
-0.069668 0.093186 0.546279 0 0 0 
-0.068613 0.093219 0.546472 0 0 0 
-0.067553 0.093245 0.546626 0 0 0 
-0.066497 0.093278 0.546819 0 0 0 
-0.065475 0.093361 0.547301 0 0 0 
-0.064474 0.093476 0.547978 0 0 0 
-0.063452 0.093565 0.548502 0 0 0 
-0.06244 0.093671 0.549123 0 0 0 
-0.061456 0.093824 0.550019 0 0 0 
-0.060529 0.094071 0.551467 0 0 0 
-0.059488 0.094148 0.551918 0 0 0 
-0.058413 0.094172 0.552056 0 0 0 
-0.057354 0.094222 0.552351 0 0 0 
-0.056257 0.094212 0.552292 0 0 0 
-0.055176 0.094229 0.55239 0 0 0 
-0.054132 0.094309 0.552863 0 0 0 
-0.053072 0.094367 0.553198 0 0 0 
-0.052006 0.094414 0.553475 0 0 0 
-0.050913 0.094414 0.553475 0 0 0 
-0.049806 0.094387 0.553317 0 0 0 
-0.048687 0.094336 0.553021 0 0 0 
-0.047581 0.094309 0.552863 0 0 0 
-0.046473 0.094276 0.552666 0 0 0 
-0.045348 0.094205 0.552253 0 0 0 
-0.044239 0.094165 0.552017 0 0 0 
-0.04313 0.094125 0.551781 0 0 0 
-0.041987 0.094004 0.551075 0 0 0 
-0.04086 0.093914 0.550547 0 0 0 
-0.039724 0.093801 0.549883 0 0 0 
-0.0386 0.093708 0.549337 0 0 0 
-0.037482 0.093625 0.548851 0 0 0 
-0.036365 0.093539 0.548346 0 0 0 
-0.03526 0.093479 0.547998 0 0 0 
-0.03416 0.09343 0.547707 0 0 0 
-0.033068 0.0934 0.547533 0 0 0 
-0.03198 0.09338 0.547417 0 0 0 
-0.030904 0.093397 0.547514 0 0 0 
-0.02982 0.093387 0.547456 0 0 0 
-0.028745 0.093407 0.547572 0 0 0 
-0.027671 0.09343 0.547707 0 0 0 
-0.026599 0.093466 0.54792 0 0 0 
-0.025527 0.093499 0.548114 0 0 0 
-0.024451 0.093526 0.548269 0 0 0 
-0.02338 0.093572 0.548541 0 0 0 
-0.022302 0.093595 0.548676 0 0 0 
-0.021219 0.093595 0.548676 0 0 0 
-0.020134 0.093585 0.548618 0 0 0 
-0.019042 0.093546 0.548385 0 0 0 
-0.017951 0.093503 0.548133 0 0 0 
-0.016852 0.09341 0.547591 0 0 0 
-0.015739 0.093222 0.546491 0 0 0 
-0.014596 0.092817 0.544113 0 0 0 
-0.013493 0.092618 0.542951 0 0 0 
-0.012409 0.092531 0.542438 0 0 0 
-0.011332 0.092486 0.542173 0 0 0 
-0.010257 0.092447 0.541945 0 0 0 
-0.009185 0.092427 0.541832 0 0 0 
-0.008118 0.092457 0.542002 0 0 0 
-0.007049 0.092469 0.542078 0 0 0 
-0.005979 0.092476 0.542116 0 0 0 
-0.004909 0.092483 0.542154 0 0 0 
-0.003839 0.092512 0.542324 0 0 0 
-0.002769 0.092544 0.542514 0 0 0 
-0.001699 0.092589 0.54278 0 0 0 
-0.000627 0.092618 0.542951 0 0 0 
0.000445 0.092667 0.543236 0 0 0 
0.001519 0.092726 0.543579 0 0 0 
0.002592 0.092713 0.543503 0 0 0 
0.003662 0.092628 0.543008 0 0 0 
0.00473 0.092554 0.542571 0 0 0 
0.005797 0.092483 0.542154 0 0 0 
0.006866 0.092463 0.54204 0 0 0 
0.007933 0.092424 0.541813 0 0 0 
0.009 0.092395 0.541642 0 0 0 
0.010068 0.092379 0.541548 0 0 0 
0.011136 0.092366 0.541472 0 0 0 
0.012187 0.092234 0.540698 0 0 0 
0.013238 0.092112 0.539982 0 0 0 
0.014288 0.092013 0.5394 0 0 0 
0.015333 0.091891 0.538688 0 0 0 
0.016376 0.091773 0.537996 0 0 0 
0.017419 0.091675 0.537418 0 0 0 
0.01846 0.091573 0.536823 0 0 0 
0.019504 0.091497 0.536377 0 0 0 
0.020539 0.09139 0.535747 0 0 0 
0.021582 0.091326 0.535377 0 0 0 
0.022616 0.091235 0.534842 0 0 0 
0.023658 0.091178 0.53451 0 0 0 
0.024698 0.091122 0.534178 0 0 0 
0.025736 0.091062 0.533829 0 0 0 
0.02677 0.090994 0.533425 0 0 0 
0.027808 0.090943 0.533131 0 0 0 
0.02884 0.090878 0.532747 0 0 0 
0.029875 0.090828 0.532454 0 0 0 
0.030906 0.090769 0.532107 0 0 0 
0.031927 0.090685 0.531614 0 0 0 
0.032966 0.090653 0.531432 0 0 0 
0.034004 0.090623 0.53125 0 0 0 
0.035048 0.09061 0.531177 0 0 0 
0.036098 0.090613 0.531195 0 0 0 
0.037136 0.090585 0.531032 0 0 0 
0.03815 0.090505 0.530559 0 0 0 
0.039184 0.090474 0.530378 0 0 0 
0.040236 0.090483 0.530432 0 0 0 
0.041299 0.090517 0.530632 0 0 0 
0.042345 0.090514 0.530614 0 0 0 
0.043396 0.09052 0.53065 0 0 0 
0.044448 0.090529 0.530705 0 0 0 
0.045498 0.090533 0.530723 0 0 0 
0.063487 0.092308 0.541132 0 0 0 
0.06458 0.092344 0.54134 0 0 0 
0.065692 0.092405 0.541699 0 0 0 
0.06679 0.092444 0.541926 0 0 0 
0.067869 0.092457 0.542002 0 0 0 
0.069046 0.092599 0.542837 0 0 0 
0.070187 0.09269 0.54337 0 0 0 
0.071317 0.092765 0.543808 0 0 0 
0.072378 0.092748 0.543713 0 0 0 
0.073221 0.092457 0.542002 0 0 0 
0.073254 0.091166 0.534436 0 0 0 
0.074164 0.090987 0.533388 0 0 0 
0.074923 0.090632 0.531305 0 0 0 
0.075933 0.090585 0.531032 0 0 0 
0.076939 0.090536 0.530741 0 0 0 
0.077929 0.090468 0.530341 0 0 0 
-0.608222 0.171637 1.01796 0 0 0 
-0.28339 0.125649 0.745211 0 0 0 
-0.25797 0.124039 0.735664 0 0 0 
-0.256688 0.124122 0.736153 0 0 0 
-0.255416 0.12421 0.736678 0 0 0 
-0.254167 0.124311 0.737273 0 0 0 
-0.253241 0.124571 0.738819 0 0 0 
-0.252178 0.124768 0.739983 0 0 0 
-0.250993 0.124905 0.740796 0 0 0 
-0.249709 0.124994 0.741327 0 0 0 
-0.24834 0.125042 0.741611 0 0 0 
-0.246722 0.124964 0.74115 0 0 0 
-0.245106 0.124887 0.74069 0 0 0 
-0.243609 0.124869 0.740583 0 0 0 
-0.242054 0.124821 0.740301 0 0 0 
-0.240604 0.124827 0.740336 0 0 0 
-0.239176 0.124845 0.740442 0 0 0 
-0.237703 0.124839 0.740407 0 0 0 
-0.236274 0.124857 0.740513 0 0 0 
-0.234913 0.124911 0.740831 0 0 0 
-0.233473 0.124923 0.740902 0 0 0 
-0.231998 0.124917 0.740867 0 0 0 
-0.230734 0.125024 0.741504 0 0 0 
-0.229445 0.12512 0.742072 0 0 0 
-0.228155 0.125216 0.742641 0 0 0 
-0.226819 0.125288 0.743068 0 0 0 
-0.225524 0.125384 0.743638 0 0 0 
-0.22426 0.125498 0.744316 0 0 0 
-0.222994 0.125613 0.744996 0 0 0 
-0.221629 0.125673 0.745354 0 0 0 
-0.220274 0.12574 0.745748 0 0 0 
-0.219044 0.125879 0.746574 0 0 0 
-0.21779 0.126006 0.74733 0 0 0 
-0.216721 0.126244 0.748737 0 0 0 
-0.215534 0.126415 0.749751 0 0 0 
-0.214147 0.12647 0.750077 0 0 0 
-0.21281 0.126555 0.750586 0 0 0 
-0.21143 0.126617 0.750949 0 0 0 
-0.210049 0.126678 0.751313 0 0 0 
-0.208697 0.126758 0.751786 0 0 0 
-0.207323 0.126825 0.752188 0 0 0 
-0.205988 0.126918 0.752735 0 0 0 
-0.116296 0.093168 0.552567 0 0 0 
-0.115188 0.093155 0.552489 0 0 0 
-0.114146 0.093194 0.552725 0 0 0 
-0.113083 0.093218 0.552863 0 0 0 
-0.111939 0.093174 0.552607 0 0 0 
-0.110702 0.093052 0.551879 0 0 0 
-0.109461 0.092923 0.551114 0 0 0 
-0.079161 0.091858 0.544801 0 0 0 
-0.07808 0.091852 0.544763 0 0 0 
-0.077009 0.091858 0.544801 0 0 0 
-0.075955 0.091884 0.544955 0 0 0 
-0.074903 0.091913 0.545127 0 0 0 
-0.073834 0.091923 0.545185 0 0 0 
-0.072765 0.091933 0.545242 0 0 0 
-0.071726 0.091981 0.54553 0 0 0 
-0.070719 0.092072 0.546068 0 0 0 
-0.069682 0.092127 0.546395 0 0 0 
-0.068632 0.092166 0.546626 0 0 0 
-0.067572 0.092192 0.54678 0 0 0 
-0.06652 0.092231 0.547012 0 0 0 
-0.06548 0.092286 0.54734 0 0 0 
-0.064476 0.092397 0.547998 0 0 0 
-0.063457 0.092489 0.548541 0 0 0 
-0.062469 0.09263 0.549376 0 0 0 
-0.061504 0.092811 0.550449 0 0 0 
-0.060576 0.093055 0.551899 0 0 0 
-0.059535 0.093131 0.552351 0 0 0 
-0.058457 0.093151 0.552469 0 0 0 
-0.057388 0.093188 0.552686 0 0 0 
-0.056295 0.093184 0.552666 0 0 0 
-0.055216 0.093204 0.552784 0 0 0 
-0.054164 0.093274 0.553198 0 0 0 
-0.053101 0.093324 0.553495 0 0 0 
-0.052024 0.093354 0.553672 0 0 0 
-0.050926 0.093344 0.553613 0 0 0 
-0.049816 0.093314 0.553435 0 0 0 
-0.048689 0.093248 0.55304 0 0 0 
-0.047571 0.093198 0.552745 0 0 0 
-0.046457 0.093151 0.552469 0 0 0 
-0.04533 0.093078 0.552036 0 0 0 
-0.044215 0.093025 0.551722 0 0 0 
-0.043099 0.092969 0.551388 0 0 0 
-0.041947 0.092827 0.550547 0 0 0 
-0.040823 0.092745 0.550058 0 0 0 
-0.039706 0.092672 0.549629 0 0 0 
-0.038592 0.092603 0.549221 0 0 0 
-0.037476 0.092525 0.548754 0 0 0 
-0.036357 0.092436 0.54823 0 0 0 
-0.035244 0.092355 0.547746 0 0 0 
-0.034143 0.092303 0.547437 0 0 0 
-0.033051 0.092273 0.547263 0 0 0 
-0.031963 0.09225 0.547128 0 0 0 
-0.030886 0.09226 0.547185 0 0 0 
-0.029798 0.092238 0.54705 0 0 0 
-0.028727 0.092267 0.547224 0 0 0 
-0.027648 0.092273 0.547263 0 0 0 
-0.02658 0.092316 0.547514 0 0 0 
-0.025513 0.092368 0.547823 0 0 0 
-0.024438 0.092394 0.547978 0 0 0 
-0.023369 0.092443 0.548269 0 0 0 
-0.022292 0.092469 0.548424 0 0 0 
-0.021211 0.092476 0.548463 0 0 0 
-0.020124 0.092459 0.548366 0 0 0 
-0.019036 0.092433 0.548211 0 0 0 
-0.017951 0.09242 0.548133 0 0 0 
-0.016851 0.092322 0.547553 0 0 0 
-0.015741 0.092153 0.546549 0 0 0 
-0.014597 0.091746 0.544132 0 0 0 
-0.013495 0.091559 0.543027 0 0 0 
-0.012413 0.091489 0.542609 0 0 0 
-0.011335 0.091434 0.542286 0 0 0 
-0.010259 0.091393 0.54204 0 0 0 
-0.009187 0.09137 0.541907 0 0 0 
-0.008118 0.091383 0.541983 0 0 0 
-0.007048 0.091389 0.542021 0 0 0 
-0.005978 0.091396 0.542059 0 0 0 
-0.004908 0.091402 0.542097 0 0 0 
-0.003839 0.091438 0.542305 0 0 0 
-0.002769 0.091473 0.542514 0 0 0 
-0.001699 0.091518 0.54278 0 0 0 
-0.000627 0.091537 0.542894 0 0 0 
0.000445 0.091591 0.543217 0 0 0 
0.001519 0.091646 0.543541 0 0 0 
0.002591 0.091633 0.543465 0 0 0 
0.003661 0.091534 0.542875 0 0 0 
0.00473 0.091476 0.542533 0 0 0 
0.005797 0.091409 0.542135 0 0 0 
0.006865 0.091374 0.541926 0 0 0 
0.007931 0.091329 0.541661 0 0 0 
0.008997 0.091297 0.541472 0 0 0 
0.010064 0.091272 0.541321 0 0 0 
0.011129 0.091243 0.541151 0 0 0 
0.012181 0.091116 0.540396 0 0 0 
0.013234 0.091024 0.539851 0 0 0 
0.014285 0.090929 0.539288 0 0 0 
0.015333 0.090828 0.538688 0 0 0 
0.016378 0.09072 0.538052 0 0 0 
0.017421 0.09062 0.537456 0 0 0 
0.018462 0.090522 0.536879 0 0 0 
0.019508 0.090457 0.536489 0 0 0 
0.020542 0.090344 0.535821 0 0 0 
0.021583 0.090272 0.535396 0 0 0 
0.022623 0.090207 0.535008 0 0 0 
0.023664 0.090148 0.534657 0 0 0 
0.024705 0.090092 0.534326 0 0 0 
0.02574 0.090024 0.533921 0 0 0 
0.026776 0.089962 0.533553 0 0 0 
0.027816 0.089918 0.533296 0 0 0 
0.028848 0.089851 0.532893 0 0 0 
0.029883 0.089801 0.5326 0 0 0 
0.030917 0.089749 0.53229 0 0 0 
0.031944 0.089681 0.531888 0 0 0 
0.032982 0.089647 0.531687 0 0 0 
0.034019 0.089613 0.531487 0 0 0 
0.03506 0.089592 0.531359 0 0 0 
0.03611 0.089595 0.531378 0 0 0 
0.037146 0.089561 0.531177 0 0 0 
0.038168 0.0895 0.530814 0 0 0 
0.039207 0.089478 0.530686 0 0 0 
0.040265 0.0895 0.530814 0 0 0 
0.04133 0.089537 0.531032 0 0 0 
0.042373 0.089524 0.530959 0 0 0 
0.043423 0.089528 0.530977 0 0 0 
0.044466 0.089518 0.530923 0 0 0 
0.045515 0.089518 0.530923 0 0 0 
0.062483 0.091335 0.541699 0 0 0 
0.063589 0.091386 0.542002 0 0 0 
0.064684 0.091422 0.542211 0 0 0 
0.065784 0.091463 0.542457 0 0 0 
0.066869 0.091482 0.542571 0 0 0 
0.067969 0.091521 0.542799 0 0 0 
0.069131 0.091639 0.543503 0 0 0 
0.070295 0.091758 0.544209 0 0 0 
0.07139 0.091784 0.544362 0 0 0 
0.072434 0.091746 0.544132 0 0 0 
0.07319 0.091348 0.541775 0 0 0 
0.073138 0.089968 0.53359 0 0 0 
0.074125 0.089888 0.533113 0 0 0 
0.07501 0.089687 0.531924 0 0 0 
0.076029 0.08965 0.531706 0 0 0 
0.07705 0.089616 0.531505 0 0 0 
0.077993 0.089494 0.530777 0 0 0 
-0.618618 0.172527 1.03536 0 0 0 
-0.283895 0.124399 0.746538 0 0 0 
-0.258056 0.122628 0.735909 0 0 0 
-0.256761 0.122703 0.736363 0 0 0 
-0.255489 0.122791 0.736888 0 0 0 
-0.254251 0.122896 0.737519 0 0 0 
-0.253192 0.123089 0.738678 0 0 0 
-0.252118 0.123277 0.739806 0 0 0 
-0.250957 0.123424 0.74069 0 0 0 
-0.249542 0.123448 0.740831 0 0 0 
-0.248221 0.123519 0.741256 0 0 0 
-0.246793 0.123536 0.741362 0 0 0 
-0.2452 0.123471 0.740973 0 0 0 
-0.243702 0.123454 0.740867 0 0 0 
-0.242158 0.123412 0.740619 0 0 0 
-0.240684 0.123407 0.740583 0 0 0 
-0.239233 0.123412 0.740619 0 0 0 
-0.237782 0.123418 0.740654 0 0 0 
-0.236308 0.123412 0.740619 0 0 0 
-0.234924 0.123454 0.740867 0 0 0 
-0.233562 0.123507 0.741185 0 0 0 
-0.232087 0.123501 0.74115 0 0 0 
-0.230778 0.123584 0.741646 0 0 0 
-0.229522 0.123696 0.742321 0 0 0 
-0.228231 0.123791 0.74289 0 0 0 
-0.226884 0.123856 0.743281 0 0 0 
-0.2256 0.123957 0.743888 0 0 0 
-0.224303 0.124052 0.744459 0 0 0 
-0.222983 0.124136 0.74496 0 0 0 
-0.221608 0.12419 0.745282 0 0 0 
-0.22021 0.124231 0.745533 0 0 0 
-0.218886 0.124315 0.746035 0 0 0 
-0.21757 0.124405 0.746574 0 0 0 
-0.216304 0.124525 0.747294 0 0 0 
-0.215046 0.124651 0.748051 0 0 0 
-0.213692 0.124723 0.748484 0 0 0 
-0.212409 0.124838 0.749171 0 0 0 
-0.211032 0.124898 0.749533 0 0 0 
-0.209653 0.124958 0.749896 0 0 0 
-0.208303 0.125037 0.750368 0 0 0 
-0.206922 0.125097 0.750731 0 0 0 
-0.205579 0.125182 0.75124 0 0 0 
-0.116346 0.092116 0.552804 0 0 0 
-0.115262 0.092123 0.552843 0 0 0 
-0.11422 0.092162 0.55308 0 0 0 
-0.113144 0.092175 0.553159 0 0 0 
-0.111936 0.09208 0.552587 0 0 0 
-0.110349 0.091668 0.550117 0 0 0 
-0.108892 0.091357 0.54825 0 0 0 
-0.079225 0.090856 0.545242 0 0 0 
-0.078135 0.09084 0.545146 0 0 0 
-0.077066 0.09085 0.545204 0 0 0 
-0.076006 0.090869 0.545319 0 0 0 
-0.07495 0.090894 0.545472 0 0 0 
-0.073883 0.090907 0.545549 0 0 0 
-0.072811 0.090913 0.545587 0 0 0 
-0.071762 0.090949 0.545799 0 0 0 
-0.070729 0.091006 0.546145 0 0 0 
-0.06968 0.091045 0.546376 0 0 0 
-0.068625 0.091077 0.546568 0 0 0 
-0.06757 0.091109 0.546761 0 0 0 
-0.066506 0.091132 0.546896 0 0 0 
-0.065463 0.091183 0.547205 0 0 0 
-0.064458 0.091289 0.547843 0 0 0 
-0.063446 0.091389 0.548443 0 0 0 
-0.062458 0.091529 0.549279 0 0 0 
-0.061521 0.09175 0.550605 0 0 0 
-0.060608 0.092014 0.552194 0 0 0 
-0.059573 0.0921 0.552705 0 0 0 
-0.058501 0.092129 0.552883 0 0 0 
-0.057438 0.092175 0.553159 0 0 0 
-0.056337 0.092162 0.55308 0 0 0 
-0.055255 0.092178 0.553179 0 0 0 
-0.054193 0.092231 0.553495 0 0 0 
-0.053129 0.092281 0.553791 0 0 0 
-0.052054 0.092314 0.553989 0 0 0 
-0.050949 0.092294 0.55387 0 0 0 
-0.049829 0.092244 0.553574 0 0 0 
-0.048689 0.092156 0.55304 0 0 0 
-0.047566 0.092096 0.552686 0 0 0 
-0.04645 0.092047 0.55239 0 0 0 
-0.045317 0.091962 0.551879 0 0 0 
-0.044206 0.091916 0.551604 0 0 0 
-0.043084 0.091847 0.551192 0 0 0 
-0.041932 0.091707 0.550351 0 0 0 
-0.040813 0.091636 0.549922 0 0 0 
-0.039696 0.091564 0.549493 0 0 0 
-0.038585 0.091503 0.549123 0 0 0 
-0.037468 0.091422 0.548638 0 0 0 
-0.036344 0.091322 0.548036 0 0 0 
-0.035224 0.091222 0.547437 0 0 0 
-0.034118 0.091154 0.547031 0 0 0 
-0.033021 0.091109 0.546761 0 0 0 
-0.03192 0.091048 0.546395 0 0 0 
-0.030839 0.091042 0.546356 0 0 0 
-0.029752 0.091016 0.546202 0 0 0 
-0.028683 0.091048 0.546395 0 0 0 
-0.027608 0.091061 0.546472 0 0 0 
-0.026545 0.091116 0.5468 0 0 0 
-0.025483 0.09118 0.547185 0 0 0 
-0.024413 0.091219 0.547417 0 0 0 
-0.023349 0.091283 0.547804 0 0 0 
-0.022273 0.091309 0.547959 0 0 0 
-0.021194 0.091322 0.548036 0 0 0 
-0.02011 0.091312 0.547978 0 0 0 
-0.019025 0.091296 0.547882 0 0 0 
-0.017941 0.091289 0.547843 0 0 0 
-0.016845 0.091212 0.547379 0 0 0 
-0.015737 0.091055 0.546433 0 0 0 
-0.014604 0.090716 0.5444 0 0 0 
-0.013498 0.090512 0.543179 0 0 0 
-0.012418 0.090452 0.542818 0 0 0 
-0.011338 0.090389 0.542438 0 0 0 
-0.010259 0.090322 0.54204 0 0 0 
-0.009185 0.090288 0.541832 0 0 0 
-0.008116 0.090294 0.541869 0 0 0 
-0.007045 0.090288 0.541832 0 0 0 
-0.005976 0.090288 0.541832 0 0 0 
-0.004906 0.090291 0.541851 0 0 0 
-0.003838 0.090329 0.542078 0 0 0 
-0.002768 0.090354 0.54223 0 0 0 
-0.001698 0.090389 0.542438 0 0 0 
-0.000627 0.090392 0.542457 0 0 0 
0.000445 0.090433 0.542704 0 0 0 
0.001517 0.09049 0.543046 0 0 0 
0.002589 0.090487 0.543027 0 0 0 
0.003658 0.090405 0.542533 0 0 0 
0.004727 0.090351 0.542211 0 0 0 
0.005793 0.090275 0.541756 0 0 0 
0.006858 0.090212 0.541378 0 0 0 
0.007921 0.090143 0.540962 0 0 0 
0.008987 0.090127 0.540868 0 0 0 
0.010055 0.090124 0.540849 0 0 0 
0.011116 0.09007 0.540528 0 0 0 
0.01217 0.08997 0.539926 0 0 0 
0.013225 0.089892 0.539456 0 0 0 
0.014277 0.089811 0.538969 0 0 0 
0.015324 0.089711 0.53837 0 0 0 
0.01637 0.089618 0.53781 0 0 0 
0.017419 0.089549 0.5374 0 0 0 
0.018465 0.089478 0.536972 0 0 0 
0.019513 0.089422 0.536637 0 0 0 
0.020553 0.089336 0.536118 0 0 0 
0.021593 0.089258 0.535655 0 0 0 
0.022636 0.0892 0.535303 0 0 0 
0.023677 0.089138 0.534934 0 0 0 
0.024719 0.089089 0.534639 0 0 0 
0.025758 0.089031 0.534289 0 0 0 
0.026792 0.08896 0.533866 0 0 0 
0.027832 0.088914 0.53359 0 0 0 
0.028864 0.08885 0.533205 0 0 0 
0.029901 0.088801 0.532912 0 0 0 
0.030937 0.088756 0.532637 0 0 0 
0.031964 0.088686 0.532216 0 0 0 
0.033004 0.088658 0.532052 0 0 0 
0.034048 0.08864 0.531943 0 0 0 
0.035094 0.088628 0.53187 0 0 0 
0.036139 0.088616 0.531797 0 0 0 
0.037179 0.088591 0.531651 0 0 0 
0.038202 0.088531 0.531286 0 0 0 
0.039242 0.088509 0.531159 0 0 0 
0.040312 0.088555 0.531432 0 0 0 
0.041379 0.088594 0.531669 0 0 0 
0.042423 0.088582 0.531596 0 0 0 
0.043473 0.088582 0.531596 0 0 0 
0.0445 0.088537 0.531323 0 0 0 
0.045537 0.088512 0.531177 0 0 0 
0.062534 0.090338 0.542135 0 0 0 
0.063638 0.090386 0.542419 0 0 0 
0.064734 0.09042 0.542628 0 0 0 
0.065828 0.090452 0.542818 0 0 0 
0.066921 0.090481 0.542989 0 0 0 
0.068022 0.090519 0.543217 0 0 0 
0.069218 0.090681 0.54419 0 0 0 
0.070406 0.090827 0.54507 0 0 0 
0.071442 0.090776 0.544763 0 0 0 
0.072442 0.090681 0.54419 0 0 0 
0.073088 0.090152 0.541019 0 0 0 
0.073441 0.089283 0.535803 0 0 0 
0.074238 0.088969 0.533921 0 0 0 
0.075168 0.088823 0.53304 0 0 0 
0.076139 0.088728 0.532472 0 0 0 
0.077167 0.088701 0.532308 0 0 0 
0.078103 0.08857 0.531523 0 0 0 
-0.629377 0.173447 1.05337 0 0 0 
-0.288692 0.123085 0.74751 0 0 0 
-0.287383 0.123156 0.747942 0 0 0 
-0.285975 0.123186 0.748123 0 0 0 
-0.284566 0.123215 0.748303 0 0 0 
-0.258239 0.121261 0.736433 0 0 0 
-0.25698 0.121353 0.736993 0 0 0 
-0.25572 0.121445 0.737554 0 0 0 
-0.254493 0.121555 0.738221 0 0 0 
-0.253531 0.121793 0.739665 0 0 0 
-0.252347 0.121927 0.740477 0 0 0 
-0.251076 0.12202 0.741044 0 0 0 
-0.249721 0.122072 0.741362 0 0 0 
-0.248304 0.122096 0.741504 0 0 0 
-0.246935 0.122143 0.741788 0 0 0 
-0.24547 0.122143 0.741788 0 0 0 
-0.2439 0.12209 0.741469 0 0 0 
-0.242332 0.122037 0.74115 0 0 0 
-0.240845 0.122026 0.741079 0 0 0 
-0.239347 0.122008 0.740973 0 0 0 
-0.23785 0.121991 0.740867 0 0 0 
-0.236399 0.121997 0.740902 0 0 0 
-0.235059 0.122061 0.741292 0 0 0 
-0.233707 0.122119 0.741646 0 0 0 
-0.232298 0.122148 0.741823 0 0 0 
-0.230922 0.122195 0.742108 0 0 0 
-0.229588 0.122265 0.742534 0 0 0 
-0.228275 0.122347 0.743032 0 0 0 
-0.226938 0.122418 0.74346 0 0 0 
-0.225654 0.122518 0.744066 0 0 0 
-0.22439 0.122629 0.744745 0 0 0 
-0.223037 0.122694 0.745139 0 0 0 
-0.221661 0.122747 0.745461 0 0 0 
-0.220263 0.122789 0.745712 0 0 0 
-0.218875 0.122836 0.745999 0 0 0 
-0.217496 0.122889 0.746322 0 0 0 
-0.216304 0.123049 0.747294 0 0 0 
-0.215066 0.123186 0.748123 0 0 0 
-0.213765 0.123287 0.748737 0 0 0 
-0.212399 0.123352 0.749135 0 0 0 
-0.211001 0.1234 0.749425 0 0 0 
-0.209582 0.123436 0.749642 0 0 0 
-0.208223 0.123507 0.750077 0 0 0 
-0.206832 0.123561 0.750404 0 0 0 
-0.205479 0.123639 0.750876 0 0 0 
-0.114199 0.091054 0.552981 0 0 0 
-0.113031 0.090992 0.552607 0 0 0 
-0.111423 0.090572 0.550058 0 0 0 
-0.109963 0.090265 0.548191 0 0 0 
-0.108738 0.090147 0.547475 0 0 0 
-0.080389 0.089877 0.545837 0 0 0 
-0.079295 0.089858 0.545722 0 0 0 
-0.078184 0.08982 0.545491 0 0 0 
-0.077096 0.089808 0.545415 0 0 0 
-0.076035 0.089827 0.54553 0 0 0 
-0.074961 0.08983 0.545549 0 0 0 
-0.073876 0.08982 0.545491 0 0 0 
-0.072814 0.089839 0.545607 0 0 0 
-0.071741 0.089846 0.545645 0 0 0 
-0.070704 0.089896 0.545952 0 0 0 
-0.069655 0.089934 0.546183 0 0 0 
-0.068615 0.089985 0.546491 0 0 0 
-0.06755 0.090004 0.546607 0 0 0 
-0.066492 0.090033 0.54678 0 0 0 
-0.06545 0.090083 0.547089 0 0 0 
-0.064447 0.090192 0.547746 0 0 0 
-0.063437 0.090294 0.548366 0 0 0 
-0.06246 0.090447 0.549298 0 0 0 
-0.061554 0.090711 0.550899 0 0 0 
-0.060636 0.090966 0.552449 0 0 0 
-0.059614 0.09107 0.55308 0 0 0 
-0.058536 0.091093 0.553218 0 0 0 
-0.057458 0.091115 0.553356 0 0 0 
-0.056357 0.091102 0.553277 0 0 0 
-0.055271 0.091112 0.553336 0 0 0 
-0.054205 0.091158 0.553613 0 0 0 
-0.05314 0.091207 0.55391 0 0 0 
-0.05206 0.091229 0.554048 0 0 0 
-0.050946 0.091193 0.553831 0 0 0 
-0.049822 0.091138 0.553495 0 0 0 
-0.04868 0.091047 0.552942 0 0 0 
-0.047554 0.090982 0.552548 0 0 0 
-0.046439 0.090934 0.552253 0 0 0 
-0.045309 0.090856 0.551781 0 0 0 
-0.044196 0.090808 0.551487 0 0 0 
-0.04307 0.09073 0.551016 0 0 0 
-0.041921 0.090598 0.550215 0 0 0 
-0.0408 0.090521 0.549746 0 0 0 
-0.039685 0.090454 0.549337 0 0 0 
-0.038573 0.09039 0.548948 0 0 0 
-0.037457 0.090313 0.548482 0 0 0 
-0.036332 0.090208 0.547843 0 0 0 
-0.035204 0.09009 0.547128 0 0 0 
-0.034095 0.090014 0.546665 0 0 0 
-0.032992 0.08995 0.546279 0 0 0 
-0.031884 0.089868 0.545779 0 0 0 
-0.030808 0.089874 0.545818 0 0 0 
-0.029722 0.089849 0.545664 0 0 0 
-0.028645 0.089849 0.545664 0 0 0 
-0.027569 0.089855 0.545703 0 0 0 
-0.026515 0.089934 0.546183 0 0 0 
-0.025455 0.090001 0.546588 0 0 0 
-0.024386 0.090036 0.5468 0 0 0 
-0.023327 0.090118 0.547301 0 0 0 
-0.022258 0.090163 0.547572 0 0 0 
-0.021178 0.090173 0.54763 0 0 0 
-0.020098 0.090176 0.547649 0 0 0 
-0.019015 0.090166 0.547591 0 0 0 
-0.017936 0.090179 0.547669 0 0 0 
-0.016847 0.090141 0.547437 0 0 0 
-0.015745 0.09002 0.546703 0 0 0 
-0.01462 0.089742 0.545012 0 0 0 
-0.01351 0.089518 0.543655 0 0 0 
-0.012422 0.089412 0.543008 0 0 0 
-0.011343 0.089358 0.542685 0 0 0 
-0.010263 0.089286 0.542248 0 0 0 
-0.009187 0.089237 0.541945 0 0 0 
-0.008117 0.089237 0.541945 0 0 0 
-0.007046 0.089224 0.541869 0 0 0 
-0.005976 0.089224 0.541869 0 0 0 
-0.004907 0.089237 0.541945 0 0 0 
-0.003839 0.08929 0.542267 0 0 0 
-0.002769 0.089318 0.542438 0 0 0 
-0.001698 0.089343 0.54259 0 0 0 
-0.000627 0.089361 0.542704 0 0 0 
0.000445 0.089377 0.542799 0 0 0 
0.001517 0.089408 0.542989 0 0 0 
0.002589 0.089396 0.542913 0 0 0 
0.003658 0.089318 0.542438 0 0 0 
0.004727 0.08928 0.542211 0 0 0 
0.005792 0.089202 0.541737 0 0 0 
0.006857 0.089131 0.541302 0 0 0 
0.007915 0.089016 0.540604 0 0 0 
0.008977 0.088963 0.540283 0 0 0 
0.010044 0.088963 0.540283 0 0 0 
0.011107 0.088929 0.540076 0 0 0 
0.012161 0.088836 0.539513 0 0 0 
0.013219 0.088787 0.539213 0 0 0 
0.014274 0.088731 0.538875 0 0 0 
0.015321 0.088632 0.538277 0 0 0 
0.016369 0.088552 0.537791 0 0 0 
0.017418 0.088485 0.537381 0 0 0 
0.018467 0.088427 0.537028 0 0 0 
0.019517 0.088381 0.536749 0 0 0 
0.020561 0.088311 0.536322 0 0 0 
0.021607 0.088256 0.535988 0 0 0 
0.022651 0.088201 0.535655 0 0 0 
0.023695 0.088149 0.53534 0 0 0 
0.024739 0.088103 0.535063 0 0 0 
0.025778 0.088043 0.534694 0 0 0 
0.026811 0.08797 0.534252 0 0 0 
0.027849 0.087915 0.533921 0 0 0 
0.028883 0.087855 0.533553 0 0 0 
0.029921 0.087809 0.533278 0 0 0 
0.030954 0.087752 0.53293 0 0 0 
0.031981 0.087683 0.532509 0 0 0 
0.033024 0.087659 0.532363 0 0 0 
0.034073 0.087653 0.532326 0 0 0 
0.035117 0.087635 0.532216 0 0 0 
0.036161 0.08762 0.532125 0 0 0 
0.037199 0.08759 0.531943 0 0 0 
0.04353 0.087647 0.53229 0 0 0 
0.062553 0.089296 0.542305 0 0 0 
0.06366 0.089346 0.542609 0 0 0 
0.064761 0.089386 0.542856 0 0 0 
0.065858 0.089421 0.543065 0 0 0 
0.066942 0.089437 0.54316 0 0 0 
0.06806 0.089496 0.543522 0 0 0 
0.069298 0.08971 0.544821 0 0 0 
0.070555 0.089941 0.546222 0 0 0 
0.071596 0.089893 0.545933 0 0 0 
0.072472 0.089644 0.544419 0 0 0 
0.072984 0.088957 0.540246 0 0 0 
0.073507 0.088304 0.536285 0 0 0 
0.074225 0.0879 0.533829 0 0 0 
0.075188 0.087794 0.533186 0 0 0 
0.076152 0.087692 0.532564 0 0 0 
0.077071 0.087541 0.531651 0 0 0 
0.077921 0.087317 0.530287 0 0 0 
-0.640516 0.1744 1.07201 0 0 0 
-0.290429 0.12234 0.752005 0 0 0 
-0.288636 0.12221 0.751204 0 0 0 
-0.286861 0.122085 0.75044 0 0 0 
-0.285323 0.122062 0.750295 0 0 0 
-0.257323 0.120057 0.737975 0 0 0 
-0.256146 0.120189 0.738784 0 0 0 
-0.255028 0.12035 0.739771 0 0 0 
-0.253906 0.120511 0.74076 0 0 0 
-0.252685 0.120626 0.741469 0 0 0 
-0.251353 0.120689 0.741859 0 0 0 
-0.249936 0.120712 0.742001 0 0 0 
-0.248578 0.120764 0.742321 0 0 0 
-0.247218 0.120816 0.742641 0 0 0 
-0.245775 0.120828 0.742712 0 0 0 
-0.244145 0.120747 0.742214 0 0 0 
-0.242575 0.120695 0.741894 0 0 0 
-0.241099 0.120689 0.741859 0 0 0 
-0.239565 0.120655 0.741646 0 0 0 
-0.238089 0.120649 0.741611 0 0 0 
-0.236625 0.120649 0.741611 0 0 0 
-0.235307 0.120724 0.742072 0 0 0 
-0.233953 0.120782 0.742427 0 0 0 
-0.232532 0.120805 0.74257 0 0 0 
-0.23111 0.120828 0.742712 0 0 0 
-0.22972 0.120869 0.742961 0 0 0 
-0.228428 0.120961 0.743531 0 0 0 
-0.227102 0.121037 0.743995 0 0 0 
-0.225763 0.121107 0.744423 0 0 0 
-0.224443 0.121188 0.744924 0 0 0 
-0.223048 0.121229 0.745175 0 0 0 
-0.221619 0.121252 0.745318 0 0 0 
-0.220189 0.121275 0.745461 0 0 0 
-0.21878 0.12131 0.745676 0 0 0 
-0.21736 0.12134 0.745856 0 0 0 
-0.216075 0.121445 0.746502 0 0 0 
-0.214756 0.121532 0.747042 0 0 0 
-0.213435 0.12162 0.747582 0 0 0 
-0.212091 0.121697 0.748051 0 0 0 
-0.210726 0.121761 0.748448 0 0 0 
-0.209359 0.121826 0.748846 0 0 0 
-0.208021 0.121908 0.749352 0 0 0 
-0.206652 0.121973 0.749751 0 0 0 
-0.20529 0.122044 0.750186 0 0 0 
-0.084808 0.088912 0.54653 0 0 0 
-0.083705 0.088887 0.546376 0 0 0 
-0.082603 0.088862 0.546222 0 0 0 
-0.081504 0.08884 0.546087 0 0 0 
-0.08042 0.088834 0.546049 0 0 0 
-0.079314 0.088803 0.545856 0 0 0 
-0.07822 0.088784 0.545741 0 0 0 
-0.077137 0.088778 0.545703 0 0 0 
-0.076081 0.088803 0.545856 0 0 0 
-0.075005 0.088806 0.545876 0 0 0 
-0.073912 0.088787 0.54576 0 0 0 
-0.072847 0.088803 0.545856 0 0 0 
-0.071777 0.088812 0.545914 0 0 0 
-0.070746 0.088872 0.546279 0 0 0 
-0.069704 0.088918 0.546568 0 0 0 
-0.068644 0.088944 0.546722 0 0 0 
-0.067593 0.088981 0.546954 0 0 0 
-0.06653 0.089003 0.547089 0 0 0 
-0.065473 0.089035 0.547282 0 0 0 
-0.064453 0.08912 0.547804 0 0 0 
-0.063434 0.089208 0.548346 0 0 0 
-0.062473 0.089382 0.549415 0 0 0 
-0.061622 0.089722 0.551506 0 0 0 
-0.060704 0.089975 0.55306 0 0 0 
-0.059663 0.090052 0.553534 0 0 0 
-0.058578 0.090064 0.553613 0 0 0 
-0.057499 0.090087 0.553751 0 0 0 
-0.0564 0.090077 0.553692 0 0 0 
-0.055308 0.090081 0.553712 0 0 0 
-0.054234 0.090113 0.55391 0 0 0 
-0.053165 0.090155 0.554167 0 0 0 
-0.052071 0.090155 0.554167 0 0 0 
-0.050957 0.090119 0.553949 0 0 0 
-0.049831 0.090061 0.553593 0 0 0 
-0.048675 0.089946 0.552883 0 0 0 
-0.047532 0.08985 0.552292 0 0 0 
-0.04641 0.089789 0.551918 0 0 0 
-0.045263 0.089674 0.551212 0 0 0 
-0.04413 0.089585 0.550664 0 0 0 
-0.042995 0.089486 0.550058 0 0 0 
-0.041866 0.089394 0.549493 0 0 0 
-0.040757 0.089341 0.549162 0 0 0 
-0.039654 0.089299 0.548909 0 0 0 
-0.038548 0.089249 0.548599 0 0 0 
-0.037441 0.089192 0.54825 0 0 0 
-0.036319 0.089094 0.547649 0 0 0 
-0.035194 0.088984 0.546973 0 0 0 
-0.034086 0.088912 0.54653 0 0 0 
-0.03298 0.08884 0.546087 0 0 0 
-0.031881 0.088781 0.545722 0 0 0 
-0.030804 0.088784 0.545741 0 0 0 
-0.029708 0.088728 0.545396 0 0 0 
-0.028632 0.088731 0.545415 0 0 0 
-0.027549 0.088712 0.5453 0 0 0 
-0.026488 0.088765 0.545626 0 0 0 
-0.025429 0.088831 0.546029 0 0 0 
-0.024364 0.088878 0.546318 0 0 0 
-0.023306 0.088956 0.5468 0 0 0 
-0.022241 0.089016 0.547166 0 0 0 
-0.021169 0.08905 0.547379 0 0 0 
-0.020091 0.089063 0.547456 0 0 0 
-0.019008 0.089053 0.547398 0 0 0 
-0.017931 0.089076 0.547533 0 0 0 
-0.016844 0.089044 0.54734 0 0 0 
-0.015744 0.088934 0.546665 0 0 0 
-0.014629 0.088721 0.545357 0 0 0 
-0.013516 0.088482 0.543884 0 0 0 
-0.012427 0.088376 0.543236 0 0 0 
-0.011347 0.088321 0.542894 0 0 0 
-0.010266 0.088244 0.542419 0 0 0 
-0.00919 0.088194 0.542116 0 0 0 
-0.008119 0.088185 0.542059 0 0 0 
-0.007048 0.088176 0.542002 0 0 0 
-0.005978 0.088179 0.542021 0 0 0 
-0.004908 0.088194 0.542116 0 0 0 
-0.00384 0.08825 0.542457 0 0 0 
-0.00277 0.088277 0.542628 0 0 0 
-0.001699 0.088302 0.54278 0 0 0 
-0.000627 0.088296 0.542742 0 0 0 
0.000445 0.088308 0.542818 0 0 0 
0.001517 0.088352 0.543084 0 0 0 
0.002589 0.088342 0.543027 0 0 0 
0.003659 0.088271 0.54259 0 0 0 
0.004728 0.088225 0.542305 0 0 0 
0.005793 0.088136 0.541756 0 0 0 
0.006856 0.088049 0.541226 0 0 0 
0.007914 0.087936 0.540528 0 0 0 
0.008973 0.087853 0.54002 0 0 0 
0.010036 0.08782 0.539813 0 0 0 
0.011098 0.087795 0.539663 0 0 0 
0.012156 0.087737 0.539306 0 0 0 
0.013215 0.0877 0.539081 0 0 0 
0.014269 0.087637 0.538688 0 0 0 
0.015318 0.087551 0.538164 0 0 0 
0.01637 0.087494 0.53781 0 0 0 
0.017421 0.087436 0.537456 0 0 0 
0.018474 0.087397 0.537214 0 0 0 
0.019528 0.087369 0.537046 0 0 0 
0.020572 0.0873 0.536619 0 0 0 
0.021623 0.087264 0.536396 0 0 0 
0.022674 0.087233 0.53621 0 0 0 
0.023726 0.087206 0.536044 0 0 0 
0.024765 0.08714 0.535636 0 0 0 
