ply
format ascii 1.0
comment VCGLIB generated
element vertex 842
property float x
property float y
property float z
property float nx
property float ny
property float nz
element face 0
property list uchar int vertex_indices
end_header
0.088554 -0.04605 -1.10406 0.754846 -0.227442 0.615206 
0.0898 -0.046155 -1.10661 0.790052 -0.158549 0.592182 
0.09506 -0.04669 -1.11957 0.860091 -0.302071 0.411092 
0.097682 -0.046935 -1.12552 0.576758 0.213858 0.788426 
0.099876 -0.04697 -1.12635 0.400085 0.308002 0.863172 
0.002218 -0.047863 -1.12256 -0.81101 0.195962 0.551236 
0.003271 -0.047798 -1.12101 -0.787681 0.210281 0.579086 
0.005372 -0.047688 -1.11841 -0.736068 0.276669 0.617785 
0.017906 -0.047394 -1.11142 -0.520325 0.0971311 0.848426 
0.01999 -0.047368 -1.11079 -0.509958 -0.033688 0.85954 
0.022029 -0.047251 -1.10803 -0.530313 -0.632623 0.564409 
0.024061 -0.047142 -1.10543 -0.475469 -0.659861 0.581818 
0.026126 -0.047108 -1.10463 -0.364562 -0.712273 0.599802 
0.028178 -0.047058 -1.10344 -0.612639 -0.39976 0.68181 
0.030192 -0.046955 -1.10099 -0.8775 -0.126545 0.46258 
0.031113 -0.04678 -1.09684 -0.899058 -0.291377 0.326794 
0.032084 -0.046688 -1.09465 -0.807087 -0.3099 0.502566 
0.034112 -0.046641 -1.09352 -0.190136 0.00871989 0.981719 
0.036172 -0.046638 -1.09346 -0.110326 -0.05348 0.992456 
0.038249 -0.046658 -1.09392 0.202552 -0.371947 0.905885 
0.079634 -0.046742 -1.0958 0.600334 0.127235 0.789563 
0.081838 -0.046821 -1.09767 0.777055 0.176955 0.604046 
0.084252 -0.047013 -1.10223 0.317099 -0.311626 0.895733 
0.086394 -0.047048 -1.10304 0.510141 -0.375125 0.773976 
0.088654 -0.047144 -1.10531 0.732507 -0.314541 0.603737 
0.090971 -0.047266 -1.10819 0.663343 -0.323764 0.67465 
0.096402 -0.047888 -1.12294 0.730884 0.127709 0.670447 
0.097638 -0.047975 -1.12501 0.591274 0.33426 0.733938 
0.098745 -0.047998 -1.12554 0.37556 0.369398 0.85 
0.100856 -0.047993 -1.12542 0.125768 0.595733 0.793275 
0.102995 -0.048001 -1.1256 0.15858 0.557459 0.814918 
0.002217 -0.048902 -1.12209 -0.82989 0.170762 0.531152 
0.021034 -0.048408 -1.11063 -0.382115 -0.59117 0.710286 
0.022067 -0.048379 -1.10996 -0.271877 -0.598209 0.75381 
0.023109 -0.048371 -1.10976 -0.042728 -0.587891 0.807811 
0.027217 -0.048238 -1.10666 -0.390819 -0.865441 0.313484 
0.028191 -0.04812 -1.10392 -0.612563 -0.504916 0.608133 
0.029229 -0.048116 -1.10384 -0.612563 -0.504916 0.608133 
0.031152 -0.047875 -1.09823 -0.943129 -0.217782 0.251154 
0.095189 -0.048867 -1.1211 0.819556 -0.0584075 0.570015 
0.097566 -0.049 -1.12416 0.332534 0.431432 0.838623 
0.099714 -0.049014 -1.12449 0.108175 0.555983 0.824125 
0.003269 -0.049878 -1.12024 -0.779796 0.247396 0.575077 
0.005367 -0.049752 -1.11737 -0.764831 0.270068 0.58489 
0.007456 -0.049645 -1.11494 -0.691564 0.314383 0.65031 
0.011634 -0.049538 -1.1125 -0.457331 0.444977 0.769964 
0.015803 -0.049463 -1.11079 -0.239264 0.425919 0.872551 
0.019975 -0.049426 -1.10996 -0.419906 0.0973372 0.902333 
0.022065 -0.049422 -1.10986 0.397133 0.138959 0.90718 
0.024178 -0.049466 -1.11085 0.433024 0.39474 0.810352 
0.026275 -0.049472 -1.111 0.0525961 0.138829 0.988919 
0.027308 -0.049446 -1.11041 -0.370241 -0.611988 0.69885 
0.028291 -0.049335 -1.10789 -0.696167 -0.625744 0.351848 
0.030267 -0.049153 -1.10375 -0.613011 -0.608136 0.504369 
0.032153 -0.048858 -1.09704 -0.776157 -0.462223 0.42887 
0.034119 -0.048713 -1.09374 -0.428211 -0.573967 0.697995 
0.03619 -0.048725 -1.094 0.18857 -0.401813 0.896096 
0.040358 -0.048778 -1.09519 0.111675 -0.4577 0.882065 
0.044488 -0.048779 -1.09521 -0.161459 -0.176352 0.970995 
0.048583 -0.048745 -1.09442 -0.155174 0.0194532 0.987696 
0.052664 -0.048703 -1.09346 -0.157462 0.0838366 0.98396 
0.056749 -0.048671 -1.09272 -0.0741756 0.0973056 0.992487 
0.060867 -0.048669 -1.09268 0.176662 0.0852871 0.98057 
0.065067 -0.048729 -1.09403 0.332259 0.0739507 0.940285 
0.069346 -0.048838 -1.09649 0.238124 -0.0105079 0.971178 
0.073488 -0.048843 -1.09659 0.0157451 -0.222904 0.974713 
0.077552 -0.048799 -1.09557 0.119565 -0.329994 0.93638 
0.079633 -0.048808 -1.09578 0.372198 -0.251769 0.893354 
0.081865 -0.048907 -1.09802 0.774161 0.0129059 0.632858 
0.08432 -0.049132 -1.10312 0.351608 -0.305901 0.884758 
0.086479 -0.049178 -1.10415 0.49014 -0.330072 0.806731 
0.091071 -0.04941 -1.10941 0.790689 -0.311071 0.5273 
0.092423 -0.049574 -1.11314 0.859633 -0.330392 0.389707 
0.094049 -0.049881 -1.1201 0.844572 -0.0500057 0.533102 
0.096435 -0.050023 -1.12332 0.499052 0.416369 0.75999 
0.098603 -0.050049 -1.1239 0.249019 0.59554 0.763755 
0.10069 -0.050033 -1.12354 0.0568198 0.655465 0.753085 
0.10503 -0.050083 -1.12466 0.330784 0.616073 0.714868 
0.109609 -0.050239 -1.12817 0.55583 0.535195 0.636097 
0.003268 -0.050913 -1.11976 -0.781075 0.252871 0.570944 
0.004317 -0.050842 -1.11819 -0.77194 0.260123 0.580038 
0.00641 -0.050731 -1.11572 -0.747294 0.269713 0.607294 
0.023108 -0.050461 -1.10969 0.434204 0.555988 0.708762 
0.024176 -0.050509 -1.11075 0.433024 0.39474 0.810352 
0.025226 -0.050516 -1.11091 0.1175 0.582366 0.80439 
0.027321 -0.050518 -1.11095 -0.119585 0.0302963 0.992362 
0.028356 -0.050496 -1.11045 -0.664223 -0.439509 0.604682 
0.029342 -0.050392 -1.10816 -0.72743 -0.515087 0.453355 
0.031297 -0.050178 -1.10337 -0.5884 -0.667514 0.4563 
0.033184 -0.049889 -1.09695 -0.595697 -0.620793 0.509668 
0.035183 -0.049791 -1.09477 -0.288002 -0.665373 0.688719 
0.092587 -0.050714 -1.11514 0.948227 -0.134011 0.287934 
0.095252 -0.051016 -1.12184 0.577643 0.288952 0.763436 
0.004316 -0.05189 -1.11804 -0.772801 0.263857 0.577199 
0.005362 -0.051816 -1.11643 -0.74911 0.262144 0.608371 
0.007451 -0.05171 -1.11411 -0.689189 0.28811 0.664839 
0.009536 -0.051632 -1.1124 -0.584657 0.354408 0.729775 
0.022033 -0.051439 -1.1082 0.219886 0.474492 0.852354 
0.024132 -0.051463 -1.10871 0.447859 0.414997 0.791959 
0.026272 -0.051561 -1.11085 0.105881 0.524719 0.844665 
0.028353 -0.051538 -1.11035 -0.557573 0.206122 0.804131 
0.029393 -0.051527 -1.11011 -0.673389 0.0971506 0.732877 
0.030384 -0.051433 -1.10806 -0.652615 -0.249902 0.715292 
0.032371 -0.051273 -1.10456 -0.576732 -0.666913 0.471813 
0.033341 -0.051164 -1.10219 -0.609576 -0.764138 0.210975 
0.034226 -0.050936 -1.09721 -0.426837 -0.813054 0.39592 
0.03625 -0.050873 -1.09584 -0.0905942 -0.840118 0.534784 
0.038338 -0.050903 -1.09649 0.0142669 -0.745066 0.666838 
0.040426 -0.05093 -1.09706 -0.076593 -0.676413 0.73253 
0.042467 -0.050898 -1.09636 -0.147037 -0.580122 0.801148 
0.079717 -0.050929 -1.09695 0.398255 -0.501382 0.768121 
0.084364 -0.05124 -1.10369 0.647024 -0.23842 0.724235 
0.088908 -0.051462 -1.10852 0.739003 -0.321804 0.591876 
0.091153 -0.051549 -1.11041 0.840229 -0.335609 0.42589 
0.094074 -0.052007 -1.12038 0.689746 0.255475 0.677483 
0.096307 -0.052072 -1.12181 0.531857 0.37679 0.758391 
0.098414 -0.052069 -1.12172 0.0637001 0.672074 0.737739 
0.006405 -0.052789 -1.11471 -0.713065 0.286105 0.640064 
0.029365 -0.052524 -1.10904 -0.640996 0.193888 0.742652 
0.030395 -0.052497 -1.10845 -0.495631 0.132901 0.858305 
0.031415 -0.052456 -1.10759 -0.659519 -0.0952074 0.745634 
0.03345 -0.052374 -1.10583 -0.659242 -0.588487 0.468063 
0.03536 -0.052118 -1.10035 -0.446049 -0.794968 0.411176 
0.092768 -0.052921 -1.11735 0.843173 -0.0716394 0.532848 
0.095142 -0.053071 -1.12053 0.456933 0.437559 0.774438 
0.005358 -0.053879 -1.11554 -0.751666 0.257104 0.607368 
0.007445 -0.053766 -1.11316 -0.680258 0.273868 0.679886 
0.011608 -0.053614 -1.10997 -0.450171 0.404432 0.796103 
0.015768 -0.053533 -1.10828 -0.279075 0.487772 0.827161 
0.019927 -0.053483 -1.10722 -0.194802 0.603484 0.773213 
0.024053 -0.053378 -1.10503 -0.558278 0.571684 0.601252 
0.026152 -0.053412 -1.10573 0.180018 0.919934 0.348303 
0.028304 -0.053539 -1.1084 -0.550198 0.604836 0.575722 
0.030385 -0.053526 -1.10811 -0.182228 0.74727 0.639046 
0.032441 -0.053471 -1.10697 -0.6226 -0.335297 0.707068 
0.034489 -0.053412 -1.10573 -0.689565 -0.247547 0.680603 
0.036448 -0.05323 -1.1019 -0.696658 -0.521308 0.492855 
0.038449 -0.053125 -1.09969 -0.526395 -0.633469 0.56712 
0.040464 -0.053048 -1.09809 -0.263449 -0.564547 0.782228 
0.044494 -0.052918 -1.09535 -0.331751 -0.131577 0.934146 
0.048566 -0.052855 -1.09403 -0.279806 -0.0287107 0.959627 
0.052657 -0.052821 -1.0933 -0.133169 -0.0223007 0.990842 
0.056749 -0.052793 -1.09271 -0.0267459 -0.038765 0.99889 
0.060874 -0.052798 -1.09279 0.111735 -0.109788 0.987655 
0.06508 -0.052867 -1.09423 0.306326 0.00117781 0.951926 
0.069285 -0.052929 -1.09551 0.30222 0.00556392 0.953222 
0.073525 -0.053007 -1.09714 0.208088 -0.149616 0.9666 
0.07777 -0.053081 -1.09867 0.381817 -0.452144 0.80609 
0.082112 -0.053211 -1.10137 0.683877 -0.283093 0.672436 
0.086623 -0.053432 -1.10599 0.755747 -0.183485 0.628634 
0.088991 -0.053603 -1.10956 0.769791 -0.389917 0.505358 
0.091358 -0.053764 -1.11294 0.864018 -0.353596 0.35839 
0.092811 -0.053999 -1.11786 0.522221 0.33449 0.784476 
0.09395 -0.054049 -1.11889 0.474918 0.508851 0.718 
0.096121 -0.054084 -1.11961 0.109353 0.663759 0.739909 
0.100358 -0.054092 -1.11978 0.077581 0.683535 0.725783 
0.10468 -0.054145 -1.12086 0.373288 0.611309 0.697824 
0.109237 -0.054309 -1.12429 0.520573 0.532085 0.667749 
0.006401 -0.054859 -1.11405 -0.699283 0.284519 0.655784 
0.025035 -0.054291 -1.10236 -0.489123 0.566014 0.663616 
0.026073 -0.05429 -1.10234 0.0167705 0.85272 0.5221 
0.027113 -0.054291 -1.10236 0.0379288 0.853808 0.519205 
0.029268 -0.054435 -1.10531 0.0763654 0.950131 0.302355 
0.031404 -0.054527 -1.10721 -0.356549 0.698523 0.620434 
0.092827 -0.055063 -1.11805 0.414258 0.418985 0.807987 
0.094984 -0.055092 -1.11864 0.306526 0.631203 0.712478 
0.009521 -0.055737 -1.11058 -0.673191 0.221385 0.705551 
0.021981 -0.055488 -1.10554 -0.468746 0.537417 0.701042 
0.024023 -0.055394 -1.10363 -0.55379 0.563889 0.612655 
0.026058 -0.055298 -1.10169 -0.392603 -0.240269 0.887769 
0.028127 -0.055282 -1.10138 0.530717 0.640563 0.554995 
0.029159 -0.05527 -1.10114 0.530717 0.640563 0.554995 
0.03449 -0.0555 -1.10577 -0.620617 -0.198893 0.75847 
0.036513 -0.055407 -1.10388 -0.736796 -0.181725 0.651236 
0.038488 -0.055256 -1.10083 -0.636516 -0.369704 0.67688 
0.080004 -0.055266 -1.10093 0.626516 -0.18005 0.758327 
0.08444 -0.055454 -1.10469 0.583762 -0.173677 0.793132 
0.086691 -0.055562 -1.10686 0.798856 -0.188221 0.571316 
0.089113 -0.055772 -1.11109 0.82919 -0.353057 0.433352 
0.091687 -0.056065 -1.117 0.405461 0.371244 0.835332 
0.093872 -0.056112 -1.11794 0.294136 0.597059 0.746328 
0.095958 -0.0561 -1.11769 0.162902 0.703386 0.691889 
0.098056 -0.056095 -1.11758 0.0412616 0.704774 0.708231 
0.029154 -0.056299 -1.10095 0.530717 0.640563 0.554995 
0.085567 -0.056552 -1.10581 0.698208 -0.18041 0.69279 
0.087985 -0.056767 -1.11006 0.862575 -0.205847 0.46216 
0.089283 -0.056928 -1.11323 0.857765 -0.0950508 0.505178 
0.090493 -0.057029 -1.11523 0.829897 -0.0680992 0.553744 
0.009517 -0.057808 -1.1101 -0.676303 0.197372 0.709689 
0.011588 -0.057703 -1.10806 -0.684311 0.0878145 0.723884 
0.015734 -0.05759 -1.10586 -0.41565 0.395064 0.819243 
0.019882 -0.057531 -1.10472 -0.394996 0.449816 0.801026 
0.024026 -0.057482 -1.10375 -0.441722 0.0969998 0.891893 
0.028157 -0.05742 -1.10255 -0.237233 0.163992 0.957511 
0.034464 -0.057542 -1.1049 -0.123191 0.517905 0.846521 
0.03653 -0.057516 -1.10441 -0.759159 0.0193871 0.650616 
0.040514 -0.057263 -1.09947 -0.456069 -0.242698 0.856212 
0.04453 -0.057097 -1.09625 -0.470589 -0.297915 0.830538 
0.048583 -0.057003 -1.0944 -0.287692 -0.2993 0.909754 
0.052655 -0.056945 -1.09326 -0.16514 -0.167116 0.972009 
0.056789 -0.056957 -1.09348 -0.0293812 -0.218877 0.97531 
0.060934 -0.056977 -1.09388 0.127733 -0.188178 0.973793 
0.065113 -0.057025 -1.09479 0.190954 -0.113201 0.97505 
0.069273 -0.057052 -1.09529 0.303416 -0.0556473 0.951232 
0.073531 -0.057151 -1.09722 0.41779 -0.0477251 0.907289 
0.077812 -0.057258 -1.09927 0.522303 -0.179888 0.833571 
0.080002 -0.057342 -1.1009 0.663537 -0.142152 0.734514 
0.082298 -0.057496 -1.10389 0.659715 -0.218493 0.719053 
0.084482 -0.057566 -1.10524 0.559606 -0.17317 0.810465 
0.085559 -0.05759 -1.1057 0.709593 -0.174491 0.682665 
0.086762 -0.057697 -1.10777 0.83523 -0.157534 0.526853 
0.089294 -0.057985 -1.11337 0.737849 0.190248 0.647599 
0.091546 -0.058082 -1.11525 0.283269 0.647034 0.707888 
0.095751 -0.058083 -1.11524 0.0343123 0.710782 0.702575 
0.10001 -0.058114 -1.11584 0.159732 0.680739 0.714899 
0.104347 -0.058187 -1.11724 0.384778 0.583351 0.715296 
0.108891 -0.058365 -1.12068 0.696405 0.383826 0.606381 
0.008478 -0.058903 -1.11103 -0.704905 0.0615865 0.706623 
0.01055 -0.058785 -1.10876 -0.697403 0.082785 0.711882 
0.081152 -0.058461 -1.10244 0.732572 -0.211531 0.646988 
0.085586 -0.058651 -1.10606 0.764557 -0.209792 0.609459 
0.110022 -0.059463 -1.12145 0.709798 0.293984 0.640125 
-0.00329 -0.064902 -1.20388 -0.722859 0.473258 0.50349 
-0.001021 -0.064769 -1.20138 -0.689311 0.531995 0.491764 
0.008477 -0.059944 -1.11089 -0.704905 0.0615865 0.706623 
0.009514 -0.059887 -1.10983 -0.699397 0.0257332 0.71427 
0.011586 -0.059785 -1.1079 -0.679483 -0.00719002 0.733657 
0.013653 -0.059689 -1.1061 -0.581786 0.120674 0.80434 
0.030209 -0.059448 -1.10157 0.311334 0.361558 0.878833 
0.034354 -0.059435 -1.10132 0.127989 0.638163 0.759188 
0.036504 -0.059556 -1.10359 0.222235 0.659731 0.71789 
0.038564 -0.059525 -1.10301 -0.487531 0.157293 0.85882 
0.075697 -0.059298 -1.09864 0.551342 -0.211906 0.806919 
0.077867 -0.059373 -1.10005 0.511402 -0.331117 0.792988 
0.080045 -0.059451 -1.1015 0.547913 -0.312164 0.776109 
0.081145 -0.059496 -1.10234 0.732572 -0.211531 0.646988 
0.082339 -0.059608 -1.10444 0.69215 -0.200318 0.693398 
0.084535 -0.059689 -1.10595 0.550453 -0.301738 0.778432 
0.08563 -0.059725 -1.10663 0.737201 -0.266267 0.620996 
0.086841 -0.059841 -1.10879 0.822553 -0.232295 0.519081 
0.08925 -0.060056 -1.11281 0.376658 0.488684 0.786967 
0.09142 -0.060103 -1.1137 0.13318 0.538817 0.831829 
0.093492 -0.060085 -1.11335 0.089411 0.597691 0.796725 
0.106447 -0.060291 -1.11716 0.626261 0.354575 0.694316 
0.108751 -0.060402 -1.11922 0.709798 0.293984 0.640125 
0.109955 -0.060484 -1.12075 0.709798 0.293984 0.640125 
0.010551 -0.060877 -1.10879 -0.683838 -0.0417805 0.728436 
0.079 -0.060484 -1.10139 0.547913 -0.312164 0.776109 
0.080065 -0.060505 -1.10177 0.535755 -0.279003 0.796947 
0.081203 -0.060579 -1.10313 0.72015 -0.211763 0.660713 
0.08568 -0.060804 -1.10727 0.744338 -0.32216 0.584956 
0.109894 -0.061506 -1.12012 0.74286 0.263085 0.615586 
-0.005564 -0.06725 -1.20532 -0.776179 0.431138 0.460072 
-0.003283 -0.067023 -1.20121 -0.730802 0.479412 0.485894 
-0.001019 -0.066915 -1.19924 -0.655257 0.558468 0.508676 
0.00011 -0.06684 -1.19789 -0.634783 0.567385 0.524523 
0.001232 -0.066534 -1.19235 -0.84771 0.130096 0.51426 
0.011586 -0.06187 -1.10782 -0.711594 -0.0805641 0.697956 
0.015713 -0.061678 -1.10433 -0.571617 0.0715088 0.817399 
0.019842 -0.061573 -1.10243 -0.389817 0.285752 0.875436 
0.023963 -0.061485 -1.10083 -0.305655 0.332906 0.892047 
0.028103 -0.061462 -1.10042 -0.129675 0.324944 0.936801 
0.032241 -0.061442 -1.10005 0.109907 0.470649 0.875448 
0.036384 -0.061436 -1.09993 -0.0545838 0.578503 0.813852 
0.038506 -0.061513 -1.10131 0.136288 0.610619 0.780109 
0.040604 -0.061546 -1.10191 -0.208755 0.272012 0.939378 
0.04465 -0.061398 -1.09922 -0.521956 -0.274475 0.807605 
0.048663 -0.061233 -1.09622 -0.394863 -0.526522 0.7529 
0.052743 -0.061171 -1.09509 -0.217973 -0.27697 0.935829 
0.056832 -0.061129 -1.09431 -0.0108627 -0.236427 0.971589 
0.060993 -0.061164 -1.09494 0.15103 -0.186053 0.970863 
0.065144 -0.061185 -1.09532 0.12355 -0.128705 0.983957 
0.069297 -0.061206 -1.09568 0.251562 -0.109393 0.961639 
0.073519 -0.061281 -1.09702 0.478234 -0.110836 0.87121 
0.077966 -0.061526 -1.10145 0.500586 -0.323941 0.802793 
0.080121 -0.061587 -1.10254 0.46719 -0.294255 0.833755 
0.082393 -0.061732 -1.10517 0.717168 -0.16581 0.676888 
0.084628 -0.061843 -1.10716 0.673032 -0.37013 0.640337 
0.086908 -0.06198 -1.10965 0.692719 -0.0998895 0.714256 
0.089177 -0.062104 -1.11188 0.516826 0.408166 0.752524 
0.091256 -0.062092 -1.11166 0.105025 0.662342 0.741804 
0.095437 -0.062086 -1.11153 0.0731646 0.645793 0.759999 
0.099674 -0.062115 -1.11204 0.258777 0.538428 0.801954 
0.104068 -0.062235 -1.1142 0.502535 0.401538 0.765654 
0.108648 -0.062453 -1.11814 0.691564 0.232432 0.683897 
0.109839 -0.062531 -1.11955 0.757347 0.214014 0.616947 
0.00011 -0.067911 -1.19685 -0.766629 0.495389 0.408496 
0.001234 -0.06776 -1.19417 -0.886199 0.150838 0.438062 
0.010552 -0.062976 -1.10891 -0.693398 -0.0903128 0.714873 
0.081224 -0.062676 -1.10342 0.746687 -0.188473 0.637916 
0.109798 -0.063564 -1.11912 0.718575 0.203189 0.665105 
-0.005555 -0.069417 -1.20348 -0.776179 0.431138 0.460072 
-0.003276 -0.069141 -1.19864 -0.722915 0.450407 0.523953 
-0.001017 -0.069028 -1.19667 -0.652583 0.50931 0.561016 
0.001234 -0.06889 -1.19424 -0.874646 0.15468 0.459422 
0.010556 -0.064048 -1.10937 -0.722893 -0.123389 0.679854 
0.011591 -0.063987 -1.1083 -0.709928 -0.14075 0.690066 
0.013652 -0.063857 -1.10602 -0.675439 -0.153925 0.721172 
0.015714 -0.063766 -1.10443 -0.615713 -0.146608 0.774211 
0.017773 -0.063684 -1.10298 -0.546128 -0.0125173 0.837608 
0.038411 -0.063433 -1.09856 0.288551 0.658747 0.694831 
0.042668 -0.063606 -1.10157 -0.157429 -0.00405693 0.987522 
0.046756 -0.063517 -1.10001 -0.105054 -0.383863 0.917395 
0.080176 -0.063711 -1.10331 0.675718 -0.226235 0.701586 
0.081242 -0.063731 -1.10366 0.746687 -0.188473 0.637916 
0.08244 -0.063853 -1.1058 0.744609 -0.31484 0.588586 
0.084719 -0.064 -1.10837 0.609865 -0.190417 0.769289 
0.086929 -0.064089 -1.10992 0.523112 0.00221002 0.852261 
0.089046 -0.064107 -1.11022 0.119193 0.6119 0.781902 
0.091099 -0.064079 -1.10972 0.0290874 0.619829 0.784198 
0.093202 -0.064087 -1.10985 -0.0338391 0.674927 0.737109 
0.106268 -0.064398 -1.11525 0.66938 0.199193 0.715718 
0.108613 -0.064542 -1.11777 0.725037 0.145175 0.673235 
0.109794 -0.064617 -1.11908 0.718575 0.203189 0.665105 
0.011592 -0.065041 -1.10845 -0.702514 -0.185987 0.686938 
0.012624 -0.064976 -1.10732 -0.69385 -0.220952 0.685385 
0.014686 -0.064863 -1.10538 -0.650966 -0.210844 0.729238 
0.08127 -0.064794 -1.10404 0.681599 -0.265303 0.681937 
0.107422 -0.065512 -1.11633 0.729418 0.106071 0.675795 
0.108594 -0.065585 -1.11757 0.729418 0.106071 0.675795 
-0.005548 -0.071589 -1.20185 -0.811972 0.346114 0.470007 
-0.003273 -0.071329 -1.19744 -0.762063 0.394903 0.513139 
-0.001016 -0.071176 -1.19485 -0.694829 0.357483 0.624034 
0.001233 -0.071074 -1.19311 -0.681244 0.124389 0.721411 
0.012627 -0.066036 -1.10759 -0.671609 -0.284542 0.684089 
0.013659 -0.065979 -1.10663 -0.659174 -0.304994 0.687364 
0.015717 -0.065863 -1.10465 -0.622815 -0.220318 0.750707 
0.019826 -0.065681 -1.10155 -0.548106 -0.0130182 0.836308 
0.023935 -0.065561 -1.09951 -0.357234 0.161137 0.92001 
0.028047 -0.065482 -1.09817 -0.205954 0.295543 0.932865 
0.032179 -0.065466 -1.09789 -0.0825992 0.404275 0.9109 
0.036317 -0.065463 -1.09784 -0.0192312 0.464018 0.885617 
0.040432 -0.065425 -1.09719 0.150266 0.582147 0.799078 
0.042576 -0.065542 -1.09916 0.768837 0.290868 0.56946 
0.044743 -0.065681 -1.10152 0.458157 0.1788 0.870702 
0.046833 -0.0657 -1.10184 0.0184157 -0.231435 0.972676 
0.048877 -0.065656 -1.10109 -0.205766 -0.148436 0.967278 
0.052833 -0.065414 -1.09697 -0.621441 -0.36787 0.691724 
0.05686 -0.06529 -1.09485 -0.141793 -0.118124 0.982823 
0.061042 -0.065347 -1.09581 0.0668793 -0.122056 0.990267 
0.06521 -0.065384 -1.09642 0.098464 -0.0767619 0.992176 
0.069365 -0.065404 -1.09675 0.208799 -0.0762673 0.97498 
0.073543 -0.065442 -1.09738 0.412531 -0.08176 0.907267 
0.078019 -0.065727 -1.1022 0.62472 -0.237089 0.743985 
0.080221 -0.065829 -1.10393 0.703578 -0.319762 0.63461 
0.082573 -0.066045 -1.10759 0.656884 -0.14873 0.739177 
0.086834 -0.06611 -1.10868 0.229222 0.395013 0.889619 
0.090953 -0.066066 -1.10792 -0.0443394 0.637726 0.768986 
0.095149 -0.06608 -1.10813 0.198071 0.553335 0.809067 
0.099452 -0.066163 -1.10953 0.496084 0.276488 0.823077 
0.103939 -0.066357 -1.1128 0.654484 0.154686 0.740083 
0.106244 -0.066486 -1.11499 0.698988 0.1195 0.705079 
-0.030303 -0.069795 -1.15293 0.0763978 -0.0424292 0.996174 
0.002354 -0.072138 -1.1921 -0.636618 0.176592 0.750688 
0.003471 -0.072024 -1.19019 -0.809526 -0.392589 0.43651 
0.004575 -0.071753 -1.18567 -0.858599 -0.449314 0.246828 
0.013666 -0.067056 -1.10717 -0.667435 -0.286738 0.68725 
0.014696 -0.066995 -1.10615 -0.665781 -0.290026 0.687474 
0.043586 -0.066539 -1.09849 0.479424 0.79333 0.375206 
0.044709 -0.06667 -1.10068 0.516861 0.69036 0.506218 
0.045792 -0.066736 -1.10178 0.0184157 -0.231435 0.972676 
0.04787 -0.066738 -1.1018 -0.0219983 0.0701465 0.997294 
-0.031382 -0.070865 -1.15265 0.0602387 -0.0490041 0.99698 
-0.02921 -0.070865 -1.15265 0.0992343 -0.0241945 0.99477 
-0.005542 -0.073783 -1.20068 -0.841719 0.299552 0.449196 
-0.003271 -0.073546 -1.19679 -0.785498 0.234745 0.572614 
-0.001015 -0.073385 -1.19413 -0.669173 0.301034 0.679402 
0.001232 -0.073252 -1.19195 -0.591681 0.112355 0.798305 
0.003473 -0.073192 -1.19096 -0.719752 -0.0481496 0.69256 
0.004587 -0.073071 -1.18897 -0.826606 -0.334986 0.452225 
0.005678 -0.072697 -1.18281 -0.85302 -0.459086 0.248188 
0.006776 -0.07253 -1.18007 -0.818288 -0.478643 0.318286 
0.014707 -0.068092 -1.10703 -0.665781 -0.290026 0.687474 
0.015728 -0.067992 -1.10539 -0.649099 -0.253745 0.717136 
0.017784 -0.067888 -1.10369 -0.619743 -0.201478 0.758502 
0.019833 -0.06778 -1.1019 -0.630597 -0.227796 0.741928 
0.021878 -0.067683 -1.10029 -0.561766 -0.133257 0.816493 
0.042453 -0.067419 -1.09593 0.054639 0.696844 0.715138 
0.044594 -0.067534 -1.09782 0.33732 0.8153 0.47064 
0.046823 -0.067765 -1.10161 0.0731704 0.191923 0.978679 
0.048912 -0.067781 -1.10187 -0.155931 0.121936 0.980213 
0.050939 -0.067715 -1.10078 -0.616012 -0.18968 0.764559 
0.052851 -0.067507 -1.09734 -0.742086 -0.203446 0.638684 
0.054826 -0.067391 -1.09544 -0.287885 0.015311 0.957543 
0.058969 -0.067407 -1.09568 0.137257 -0.19685 0.970778 
0.0758 -0.06768 -1.10013 0.745277 -0.24308 0.620866 
0.080315 -0.067991 -1.10523 0.66892 -0.206737 0.714007 
0.101628 -0.068312 -1.11044 0.615056 0.136949 0.7765 
0.103912 -0.068438 -1.1125 0.660787 0.104404 0.743277 
0.106205 -0.068565 -1.11457 0.679888 0.108863 0.72519 
-0.032471 -0.07196 -1.15278 0.121503 -0.0496561 0.991348 
0.004594 -0.074296 -1.19066 -0.697586 -0.0689788 0.713174 
0.006783 -0.073718 -1.18129 -0.818288 -0.478643 0.318286 
0.043453 -0.068402 -1.0951 -0.236995 0.571316 0.785768 
0.044486 -0.068402 -1.0951 0.263242 0.813354 0.518805 
0.045576 -0.06849 -1.09652 0.340513 0.816247 0.466682 
0.047839 -0.068772 -1.10108 -0.155931 0.121935 0.980213 
0.105045 -0.069543 -1.1134 0.669372 0.110885 0.734605 
-0.033558 -0.073047 -1.15278 0.12737 0.0410614 0.991005 
-0.031381 -0.073037 -1.15262 0.0600522 -0.0479419 0.997043 
-0.029222 -0.073068 -1.15313 0.0784338 -0.0726797 0.994267 
-0.027057 -0.073087 -1.15343 0.10257 -0.103884 0.989286 
-0.005537 -0.075968 -1.19944 -0.783896 0.324378 0.52942 
-0.001015 -0.07561 -1.19372 -0.634574 0.303397 0.710821 
0.003473 -0.07542 -1.19069 -0.697586 -0.0689789 0.713173 
0.005704 -0.075274 -1.18836 -0.843751 -0.213686 0.492365 
0.007893 -0.074812 -1.18098 -0.791885 -0.499614 0.351147 
0.019842 -0.069891 -1.10241 -0.630597 -0.227796 0.741928 
0.021888 -0.069791 -1.10081 -0.593536 -0.224556 0.772845 
0.023931 -0.069696 -1.09929 -0.519549 -0.141382 0.842662 
0.028025 -0.069573 -1.09732 -0.388192 -0.00252352 0.921575 
0.032137 -0.069517 -1.09643 -0.13734 0.228502 0.963808 
0.036256 -0.069489 -1.09597 -0.0886387 0.278814 0.956246 
0.040398 -0.069505 -1.09623 -0.186011 0.273361 0.943755 
0.042458 -0.069496 -1.09607 -0.0775208 0.347279 0.934552 
0.044452 -0.069383 -1.09426 -0.0182883 0.0191247 0.99965 
0.045484 -0.069383 -1.09426 0.493742 0.210252 0.843808 
0.046594 -0.069501 -1.09614 0.574023 0.140804 0.806643 
0.048859 -0.069784 -1.10065 -0.0966868 0.232625 0.967749 
0.050941 -0.069795 -1.10083 -0.476682 0.0375238 0.878275 
0.052882 -0.069618 -1.098 -0.82923 -0.0476358 0.556874 
0.05482 -0.069451 -1.09532 -0.339756 0.0148036 0.940397 
0.056879 -0.069444 -1.09521 0.22814 -0.153342 0.961477 
0.058993 -0.069501 -1.09612 0.126064 -0.258051 0.957871 
0.061048 -0.069488 -1.09591 -0.216271 -0.217975 0.95169 
0.065158 -0.069466 -1.09553 0.12456 0.17981 0.975783 
0.069369 -0.069546 -1.0968 0.277304 0.0189142 0.960596 
0.073597 -0.069634 -1.09819 0.469999 -0.0154051 0.882533 
0.075768 -0.069726 -1.09966 0.79542 -0.279885 0.53756 
0.078125 -0.069981 -1.10371 0.520738 -0.294137 0.801446 
0.080354 -0.07011 -1.10577 -0.0228312 -0.114642 0.993144 
0.082476 -0.070142 -1.10628 0.059171 0.363769 0.929608 
0.086593 -0.070099 -1.10557 -0.00565696 0.53231 0.846531 
0.09073 -0.070074 -1.10516 0.089872 0.453944 0.886486 
0.094976 -0.070132 -1.10607 0.341649 0.369429 0.864175 
0.099354 -0.07028 -1.10841 0.55902 0.146893 0.816039 
0.101611 -0.070396 -1.11025 0.636378 0.0680932 0.768366 
0.103888 -0.07052 -1.11223 0.657945 0.102413 0.74607 
0.105006 -0.070567 -1.11298 0.653203 0.107707 0.749483 
-0.047976 -0.074603 -1.16014 -0.1244 0.942443 0.310364 
-0.028135 -0.074152 -1.15307 0.116103 -0.172196 0.978197 
-0.027049 -0.074153 -1.15309 0.116103 -0.172196 0.978197 
-0.008965 -0.077449 -1.20495 -0.845268 0.287824 0.450199 
0.006808 -0.076232 -1.1858 -0.817679 -0.249089 0.518995 
0.018832 -0.07104 -1.10413 -0.649845 -0.28633 0.704071 
0.019851 -0.070964 -1.10293 -0.630597 -0.227796 0.741928 
0.020876 -0.070913 -1.10213 -0.618214 -0.255528 0.743315 
0.022917 -0.070802 -1.10038 -0.574992 -0.266402 0.773572 
0.045503 -0.070446 -1.09474 0.493742 0.210252 0.843808 
0.047634 -0.070545 -1.09629 0.571826 0.259892 0.77812 
0.051961 -0.070809 -1.10044 -0.65107 0.0555204 0.756985 
0.060054 -0.070568 -1.09663 -0.253529 -0.216811 0.942717 
0.100486 -0.071387 -1.10938 0.632945 0.0501639 0.77257 
0.1016 -0.071435 -1.11012 0.636378 0.0680932 0.768366 
0.102723 -0.071488 -1.11095 0.642137 0.0880105 0.761521 
0.103876 -0.071561 -1.11211 0.642137 0.0880105 0.761521 
-0.057492 -0.075278 -1.15362 0.0785123 0.577926 0.812303 
-0.055359 -0.075334 -1.1545 0.257015 0.493433 0.830944 
-0.046757 -0.075492 -1.15696 -0.265512 0.874555 0.40578 
-0.044516 -0.075388 -1.15535 -0.242888 0.87802 0.412415 
-0.043412 -0.075362 -1.15495 -0.242888 0.87802 0.412415 
-0.04231 -0.075337 -1.15456 -0.218692 0.887667 0.405243 
-0.040091 -0.075253 -1.15327 -0.193429 0.866186 0.460768 
-0.037894 -0.075205 -1.15253 -0.115273 0.690161 0.714416 
-0.035709 -0.075177 -1.1521 -0.0680447 0.357105 0.931583 
-0.033556 -0.075218 -1.15273 0.185272 0.153256 0.970663 
-0.031393 -0.075238 -1.15305 0.172329 -0.048646 0.983837 
-0.029221 -0.075238 -1.15305 0.131768 -0.173963 0.975897 
-0.008952 -0.078471 -1.20319 -0.862046 0.269783 0.429061 
-0.007807 -0.078341 -1.20118 -0.836955 0.331411 0.435514 
-0.005529 -0.078114 -1.19766 -0.792692 0.324489 0.516087 
-0.003266 -0.077946 -1.19506 -0.752618 0.338528 0.564771 
0.005705 -0.077526 -1.18854 -0.611377 0.160828 0.774825 
0.00682 -0.077484 -1.18789 -0.509901 0.080853 0.856425 
0.007912 -0.077223 -1.18385 -0.780209 -0.503861 0.370671 
0.010103 -0.076929 -1.17928 -0.772999 -0.554679 0.307903 
0.025989 -0.071731 -1.09869 -0.485116 -0.213297 0.848037 
0.028029 -0.071653 -1.09747 -0.460198 -0.216693 0.860966 
0.030078 -0.071605 -1.09673 -0.352842 -0.0906138 0.931285 
0.042435 -0.071525 -1.09546 -0.168626 0.122305 0.978063 
0.044508 -0.071538 -1.09566 -0.0598484 -0.037324 0.997509 
0.046571 -0.071533 -1.09558 0.450029 -0.0386652 0.892176 
0.048712 -0.071645 -1.09731 0.64313 0.57688 0.503581 
0.050913 -0.071832 -1.1002 0.320385 0.711498 0.625399 
0.05195 -0.071832 -1.1002 -0.51572 0.33165 0.789963 
0.052895 -0.071707 -1.09827 -0.63853 0.380172 0.66914 
0.054812 -0.071507 -1.09515 -0.585605 -0.137415 0.798864 
0.059032 -0.071616 -1.09684 -0.0142028 -0.134995 0.990744 
0.060066 -0.071617 -1.09684 -0.415909 -0.172247 0.892945 
0.061063 -0.071574 -1.09618 -0.415909 -0.172247 0.892945 
0.063053 -0.071487 -1.09482 -0.331462 0.120792 0.935704 
0.067271 -0.071583 -1.0963 0.307447 0.0329978 0.950993 
0.06936 -0.071605 -1.09664 0.251693 -0.00167472 0.967806 
0.071464 -0.071643 -1.09722 0.268033 -0.00146884 0.963409 
0.073574 -0.071683 -1.09783 0.544514 -0.141447 0.826739 
0.075997 -0.072017 -1.10301 0.72321 -0.327587 0.607992 
0.078252 -0.07218 -1.10552 0.476861 -0.135778 0.868428 
0.080331 -0.072175 -1.10544 -0.144185 0.543338 0.82704 
0.082329 -0.0721 -1.10427 -0.158664 0.47263 0.86686 
0.084411 -0.0721 -1.10427 -0.0471079 0.622732 0.781016 
0.097095 -0.072244 -1.10645 0.542288 0.12226 0.83125 
0.099352 -0.072369 -1.10838 0.560189 0.147031 0.815212 
-0.058514 -0.076282 -1.15234 -1.50979e-005 0.416077 0.909329 
-0.054244 -0.076383 -1.15389 0.257015 0.493433 0.830944 
-0.043325 -0.076298 -1.15261 -0.191165 0.873192 0.44832 
-0.041132 -0.076258 -1.152 -0.191165 0.873192 0.44832 
-0.008943 -0.079523 -1.20194 -0.901877 0.175837 0.394588 
-0.00666 -0.079286 -1.19832 -0.824276 0.284937 0.489265 
0.006818 -0.078581 -1.18754 -0.675791 -0.150533 0.721558 
0.007927 -0.07849 -1.18615 -0.662066 -0.448122 0.600713 
0.00902 -0.078282 -1.18297 -0.683159 -0.634533 0.361471 
0.010109 -0.078086 -1.17997 -0.763153 -0.569985 0.304492 
0.011202 -0.07796 -1.17805 -0.802637 -0.53092 0.271842 
0.024975 -0.07283 -1.09964 -0.507277 -0.264396 0.820222 
0.027016 -0.072744 -1.09833 -0.460198 -0.216692 0.860966 
0.051901 -0.072801 -1.09915 -0.78406 0.311385 0.536927 
0.060074 -0.072661 -1.09699 -0.0747117 -0.0323207 0.996681 
0.070412 -0.072659 -1.09693 0.294194 -0.026783 0.955371 
0.07146 -0.072674 -1.09715 0.291319 -0.0994195 0.951446 
0.072532 -0.072711 -1.09772 0.522809 -0.183828 0.832393 
0.074853 -0.072956 -1.10146 0.838968 0.123511 0.529979 
0.076133 -0.073189 -1.10501 0.714227 0.0737017 0.696023 
0.077201 -0.073214 -1.1054 0.487568 -0.153063 0.859563 
-0.061815 -0.077424 -1.15317 -0.173983 0.236031 0.956043 
-0.059568 -0.077327 -1.15171 -0.173983 0.236032 0.956043 
-0.057397 -0.077326 -1.1517 0.166006 0.294656 0.941074 
-0.055245 -0.077351 -1.15208 0.239364 0.494764 0.835412 
-0.05313 -0.077431 -1.15329 0.209906 0.451344 0.867311 
-0.050996 -0.07749 -1.15419 0.0405819 0.516283 0.855456 
-0.048809 -0.07747 -1.15389 -0.0877504 0.745114 0.66114 
-0.044353 -0.077283 -1.15107 -0.182714 0.853894 0.48732 
-0.042172 -0.07726 -1.15073 -0.182228 0.846548 0.500149 
-0.039984 -0.077222 -1.15017 -0.104468 0.800439 0.590241 
-0.035653 -0.077229 -1.15028 0.205936 0.48463 0.850132 
-0.033531 -0.077331 -1.15183 0.418936 0.294644 0.858882 
-0.031399 -0.077427 -1.15326 0.299157 -0.0327618 0.953641 
-0.029241 -0.077466 -1.15385 0.376758 -0.186492 0.907345 
-0.028157 -0.077474 -1.15399 0.395241 -0.277997 0.875501 
-0.023894 -0.077751 -1.15816 0.625061 0.504519 0.595617 
-0.008944 -0.080659 -1.20199 -0.922775 0.145872 0.356661 
-0.007798 -0.080511 -1.19976 -0.862022 0.166829 0.478629 
-0.005519 -0.080222 -1.19541 -0.793653 0.256846 0.551494 
-0.001012 -0.079905 -1.19063 -0.626704 0.311951 0.714093 
0.003466 -0.079749 -1.18828 -0.378591 0.410682 0.829463 
0.005699 -0.079688 -1.18736 -0.380374 0.413372 0.827308 
0.00793 -0.079632 -1.18651 -0.255864 0.378726 0.889438 
0.009042 -0.07959 -1.18588 -0.753781 -0.407557 0.515472 
0.010137 -0.07942 -1.18332 -0.712208 -0.574657 0.40315 
0.012292 -0.078944 -1.17615 -0.830576 -0.502462 0.240157 
0.024983 -0.073891 -1.1 -0.518452 -0.296728 0.801972 
0.026006 -0.073852 -1.0994 -0.498386 -0.286518 0.818241 
0.028045 -0.073765 -1.09809 -0.460026 -0.253604 0.850918 
0.03213 -0.073637 -1.09616 -0.331808 -0.0811373 0.939851 
0.036232 -0.073576 -1.09524 -0.244219 0.0363532 0.969039 
0.040334 -0.073526 -1.09448 -0.113097 0.179149 0.9773 
0.044478 -0.073554 -1.09489 0.0834626 -0.0242748 0.996215 
0.04865 -0.073621 -1.09589 0.406171 0.53373 0.741726 
0.05079 -0.073729 -1.09751 0.395104 0.651344 0.647799 
0.052882 -0.073761 -1.09799 -0.285574 0.56178 0.776435 
0.054866 -0.073645 -1.09624 -0.0837166 -0.125606 0.988542 
0.056935 -0.073649 -1.09629 0.239526 -0.199741 0.950121 
0.059052 -0.073711 -1.09722 -0.0628477 -0.0301214 0.997568 
0.061072 -0.073653 -1.09633 -0.511188 -0.0221175 0.859184 
0.063048 -0.073547 -1.09473 -0.380531 0.00415767 0.924759 
0.065108 -0.073542 -1.09466 0.334162 0.0511215 0.941128 
0.069366 -0.073681 -1.09675 0.261559 -0.0797785 0.961885 
0.071473 -0.073721 -1.09734 0.309346 -0.147958 0.939369 
0.072525 -0.07374 -1.09762 0.522809 -0.183828 0.832393 
0.073694 -0.073874 -1.09963 0.794552 -0.281423 0.538042 
0.074956 -0.074097 -1.10298 0.736379 0.268126 0.621172 
0.076076 -0.074176 -1.10417 0.736379 0.268126 0.621172 
0.078162 -0.074179 -1.10422 0.0274568 0.720792 0.692608 
0.080135 -0.074079 -1.1027 -0.204911 0.719851 0.663194 
0.082205 -0.074072 -1.10258 -0.092008 0.680816 0.726653 
0.086391 -0.074096 -1.10293 0.174462 0.493366 0.852146 
0.090594 -0.074132 -1.10347 0.157353 0.391872 0.906464 
0.094881 -0.074232 -1.10495 0.383047 0.230924 0.894399 
0.097088 -0.074326 -1.10637 0.493121 0.154189 0.856188 
-0.028169 -0.078595 -1.15447 0.702038 0.377569 0.603808 
-0.027119 -0.078702 -1.15607 0.688013 0.229866 0.688331 
-0.026051 -0.078766 -1.15702 0.605725 0.47673 0.637044 
-0.024979 -0.078824 -1.15787 0.625061 0.504519 0.595617 
-0.023893 -0.078839 -1.1581 0.625061 0.504519 0.595617 
-0.008945 -0.081805 -1.20219 -0.895523 0.129634 0.425715 
-0.006655 -0.081483 -1.1974 -0.856229 0.171527 0.487289 
0.009046 -0.080737 -1.18631 -0.666803 -0.28639 0.688007 
0.010156 -0.080683 -1.18551 -0.653064 -0.371149 0.660118 
0.01125 -0.080523 -1.18314 -0.791748 -0.478789 0.379336 
0.051819 -0.074756 -1.09739 -0.0343121 0.624788 0.78004 
0.064073 -0.074572 -1.09461 -0.19663 -0.0747212 0.977626 
0.072551 -0.074802 -1.098 0.6947 -0.0893923 0.713723 
0.074924 -0.075106 -1.10252 0.838968 0.123511 0.529979 
0.077074 -0.075176 -1.10355 -0.0717494 0.817233 0.571823 
-0.061783 -0.079557 -1.15255 -0.190032 -0.0220105 0.981531 
-0.059552 -0.079477 -1.15139 -0.0887659 -0.0590544 0.9943 
-0.057398 -0.079498 -1.1517 0.0485686 -0.113595 0.992339 
-0.055232 -0.079504 -1.15179 0.153429 -0.0455579 0.987109 
-0.050895 -0.07951 -1.15189 -0.161183 0.588352 0.792377 
-0.048685 -0.079444 -1.15093 -0.442042 0.607746 0.65973 
-0.04644 -0.079314 -1.14902 -0.319303 0.670275 0.669908 
-0.042071 -0.079239 -1.14794 -0.189228 0.728676 0.658198 
-0.033468 -0.079354 -1.14964 0.476697 0.570851 0.668498 
-0.029225 -0.079597 -1.15321 0.638349 0.360223 0.680257 
-0.02709 -0.079708 -1.15483 0.676582 0.484876 0.554195 
-0.024957 -0.079846 -1.15686 0.598153 0.482958 0.639503 
-0.021759 -0.080107 -1.16069 0.747032 0.498489 0.439832 
-0.008944 -0.082925 -1.20199 -0.909921 0.103492 0.401662 
-0.007795 -0.082746 -1.19937 -0.8957 0.120786 0.42794 
-0.005518 -0.082473 -1.19537 -0.849789 0.127217 0.511542 
-0.003258 -0.082244 -1.19202 -0.753646 0.196338 0.627271 
0.005692 -0.081823 -1.18584 -0.328431 0.453278 0.828657 
0.007924 -0.08181 -1.18565 -0.0996282 0.41449 0.904584 
0.010156 -0.0818 -1.18551 -0.715772 -0.10698 0.690091 
0.011266 -0.081757 -1.18488 -0.821995 -0.212022 0.528556 
0.012351 -0.081552 -1.18187 -0.715785 -0.305843 0.627783 
0.028063 -0.075884 -1.09879 -0.522261 -0.289946 0.801982 
0.0301 -0.075797 -1.09751 -0.473692 -0.228897 0.850424 
0.032141 -0.075732 -1.09655 -0.410156 -0.205457 0.888572 
0.034183 -0.075677 -1.09574 -0.335618 -0.11336 0.935153 
0.046513 -0.075573 -1.0942 -0.0324289 0.598489 0.800475 
0.048585 -0.075588 -1.09441 0.0808558 0.831536 0.549555 
0.050639 -0.075573 -1.09418 0.339264 0.8461 0.411115 
0.051693 -0.075606 -1.09466 0.297975 0.856139 0.422181 
0.052808 -0.075726 -1.09642 0.249465 0.758931 0.60149 
0.05489 -0.075746 -1.09671 -0.124327 0.1861 0.974633 
0.056966 -0.075758 -1.09688 0.169174 -0.0790363 0.982412 
0.059053 -0.075782 -1.09723 -0.0861973 -0.110682 0.990111 
0.061078 -0.075728 -1.09643 -0.491536 -0.0371379 0.870065 
0.063055 -0.07562 -1.09485 -0.387455 -0.114898 0.914701 
0.064068 -0.075598 -1.09452 -0.167881 -0.118952 0.978604 
0.065117 -0.075618 -1.09481 0.260905 -0.145494 0.954338 
0.067267 -0.075715 -1.09622 0.38615 -0.110917 0.915743 
0.071508 -0.075829 -1.09788 0.264723 -0.0115716 0.964255 
0.073738 -0.075994 -1.1003 0.741454 0.197672 0.641227 
0.07592 -0.076102 -1.10187 0.421793 0.641843 0.640413 
0.077927 -0.076034 -1.10086 -0.170685 0.688837 0.704535 
0.080015 -0.076046 -1.10103 -0.144586 0.687467 0.711677 
0.082102 -0.076056 -1.10117 0.0647117 0.539894 0.839242 
0.084191 -0.076068 -1.10134 0.0996886 0.544108 0.833072 
0.092704 -0.076239 -1.10381 0.286089 0.241967 0.927149 
-0.059594 -0.080619 -1.1522 -0.133173 -0.225008 0.965213 
-0.058503 -0.080612 -1.1521 0.0515765 -0.248139 0.96735 
-0.02174 -0.08113 -1.15966 0.761145 0.542961 0.354755 
-0.020692 -0.081303 -1.16215 0.754281 0.560116 0.342534 
-0.00894 -0.084017 -1.20141 -0.900205 0.0911046 0.425829 
-0.006651 -0.083693 -1.19672 -0.867639 0.115979 0.483478 
0.011265 -0.082861 -1.18469 -0.761573 -0.151714 0.630071 
0.028079 -0.076964 -1.09941 -0.518926 -0.290857 0.803815 
0.029091 -0.076899 -1.09847 -0.51328 -0.287294 0.808706 
0.031126 -0.076813 -1.09722 -0.461253 -0.255111 0.849802 
0.049551 -0.076518 -1.09292 0.0815131 0.852952 0.515585 
0.050535 -0.076449 -1.09192 0.018218 0.930783 0.365117 
0.05267 -0.076559 -1.09351 0.239356 0.922996 0.30131 
0.053806 -0.07671 -1.09569 0.309185 0.693108 0.651157 
0.054881 -0.076769 -1.09653 0.133971 0.432443 0.891653 
0.055926 -0.076784 -1.09675 0.164889 -0.0768595 0.983313 
0.062067 -0.076708 -1.09564 -0.349222 -0.261614 0.899779 
0.063066 -0.076667 -1.09504 -0.302949 -0.230606 0.924685 
0.064094 -0.076662 -1.09496 -0.0222733 -0.342882 0.939114 
-0.058511 -0.081709 -1.15226 -0.0668673 -0.259779 0.96335 
-0.057426 -0.08171 -1.15228 0.0366825 -0.243119 0.969303 
-0.055275 -0.081739 -1.15269 0.00860448 -0.247764 0.968782 
-0.053079 -0.081702 -1.15216 -0.370353 -0.00439374 0.928881 
-0.050851 -0.081611 -1.15087 -0.554643 0.40419 0.727325 
-0.048599 -0.081471 -1.14888 -0.514465 0.490104 0.703651 
-0.044172 -0.081291 -1.14631 -0.31064 0.588764 0.74623 
-0.039833 -0.081251 -1.14576 -0.0896574 0.639985 0.763139 
-0.03553 -0.081284 -1.14623 0.222731 0.653371 0.723531 
-0.031282 -0.081471 -1.14891 0.489395 0.62138 0.611866 
-0.027034 -0.081716 -1.15242 0.664669 0.459938 0.588788 
-0.02277 -0.081997 -1.15642 0.67353 0.556814 0.486123 
-0.020653 -0.082244 -1.15995 0.754281 0.560116 0.342534 
-0.008935 -0.085106 -1.20079 -0.8957 0.120786 0.42794 
-0.00779 -0.084947 -1.19852 -0.878934 0.114599 0.462971 
-0.005516 -0.084693 -1.1949 -0.841846 0.094492 0.531382 
-0.001012 -0.084352 -1.19003 -0.674871 0.190232 0.712994 
0.003459 -0.084062 -1.1859 -0.455522 0.524263 0.719477 
0.007911 -0.083909 -1.18371 -0.101039 0.569236 0.815942 
0.010142 -0.083922 -1.18389 -0.124216 0.568547 0.813219 
0.012365 -0.083876 -1.18324 -0.275243 0.284055 0.918452 
0.013476 -0.083855 -1.18293 -0.614211 -0.122134 0.779633 
0.014522 -0.083463 -1.17735 -0.845328 -0.454667 0.280532 
0.01558 -0.083192 -1.17348 -0.855766 -0.457662 0.241269 
0.03012 -0.077919 -1.09823 -0.5123 -0.286006 0.809783 
0.032154 -0.077833 -1.09701 -0.441925 -0.247752 0.862161 
0.034196 -0.077773 -1.09615 -0.405249 -0.195272 0.893108 
0.036232 -0.077708 -1.09522 -0.378534 -0.10126 0.920032 
0.040324 -0.077636 -1.09418 -0.208513 0.0622638 0.976036 
0.044398 -0.077547 -1.0929 -0.0776028 0.580278 0.810713 
0.048453 -0.07744 -1.09137 -0.310991 0.82639 0.469429 
0.050384 -0.077246 -1.0886 -0.775524 0.584037 0.239717 
0.05128 -0.077051 -1.08582 -0.920211 0.191177 0.341559 
0.059059 -0.07786 -1.09734 -0.151115 -0.120969 0.981087 
0.061082 -0.077802 -1.09651 -0.469515 -0.121075 0.874584 
0.063081 -0.077718 -1.09529 -0.262918 -0.248752 0.9322 
0.065159 -0.077733 -1.09551 0.274373 -0.0914381 0.957266 
0.067286 -0.077805 -1.09652 0.217784 0.108152 0.969986 
0.069381 -0.077836 -1.09696 0.103813 0.441444 0.891263 
0.071487 -0.077878 -1.09756 0.652389 0.177215 0.736874 
0.073725 -0.078056 -1.1001 0.533359 0.451021 0.715617 
0.075828 -0.078086 -1.10051 0.0253531 0.573668 0.818696 
0.077876 -0.078059 -1.10012 -0.0836544 0.655972 0.750135 
0.081991 -0.078028 -1.09966 0.0798049 0.492841 0.866452 
0.086218 -0.078101 -1.10069 0.330293 0.371206 0.867821 
0.090543 -0.078252 -1.10283 0.307042 0.20707 0.928896 
-0.057432 -0.082804 -1.15238 0.0724396 -0.211473 0.974696 
-0.056353 -0.082814 -1.15252 0.00908221 -0.230609 0.973004 
-0.054198 -0.08284 -1.15288 -0.0909186 -0.000312608 0.995858 
-0.01957 -0.083379 -1.16053 0.730745 0.59624 0.33243 
-0.018511 -0.083532 -1.16269 0.730745 0.59624 0.33243 
0.013474 -0.084956 -1.18274 -0.189853 0.422337 0.886333 
0.015597 -0.084392 -1.17479 -0.915789 -0.298139 0.269156 
0.030126 -0.078972 -1.09847 -0.508984 -0.291845 0.809791 
0.03115 -0.078942 -1.09805 -0.472586 -0.281695 0.835051 
0.032164 -0.078891 -1.09733 -0.450514 -0.25019 0.856996 
0.033183 -0.078854 -1.09681 -0.441215 -0.238221 0.865205 
0.035218 -0.078781 -1.09578 -0.389307 -0.22055 0.894314 
0.04937 -0.078294 -1.08889 -0.679293 0.673264 0.29202 
0.050211 -0.078005 -1.08482 -0.933085 0.0923944 0.347585 
0.051185 -0.07793 -1.08376 -0.80093 0.0426684 0.597235 
0.058013 -0.078879 -1.09711 -0.0307466 -0.0720265 0.996929 
0.059061 -0.078898 -1.09737 -0.157316 -0.010227 0.987495 
0.060096 -0.078898 -1.09737 -0.318351 0.0461457 0.946849 
0.066226 -0.078808 -1.09609 0.146762 0.370662 0.917099 
0.067277 -0.078829 -1.09638 0.217784 0.108153 0.969986 
0.068312 -0.07883 -1.0964 -0.0798495 0.226991 0.970618 
0.069315 -0.078796 -1.09591 -0.0706118 0.793767 0.60411 
0.070318 -0.078762 -1.09542 0.0572434 0.619978 0.782528 
0.071351 -0.078762 -1.09542 0.221731 0.756987 0.614659 
0.072509 -0.078899 -1.09735 0.506464 0.770376 0.387318 
0.073644 -0.079007 -1.09886 0.368382 0.799659 0.474174 
0.074737 -0.079067 -1.09971 0.203799 0.732975 0.649009 
0.076781 -0.079038 -1.09929 -0.0136791 0.677134 0.735733 
0.110029 -0.086433 -1.2033 0.634866 -0.00944387 0.772564 
-0.055295 -0.083943 -1.15311 -0.269355 -0.190044 0.944103 
-0.053101 -0.08391 -1.15265 -0.368374 0.123032 0.921501 
-0.050801 -0.083697 -1.14971 -0.670326 0.315534 0.671641 
-0.048535 -0.083527 -1.14734 -0.50279 0.481775 0.717701 
-0.046326 -0.083441 -1.14615 -0.425193 0.541892 0.724958 
-0.020597 -0.0842 -1.15674 0.699494 0.585439 0.40984 
-0.018483 -0.0845 -1.16091 0.727388 0.617677 0.298968 
-0.005513 -0.086895 -1.1942 -0.794561 0.104507 0.598122 
-0.003256 -0.086689 -1.19133 -0.778857 0.123976 0.614827 
0.010129 -0.086039 -1.1823 -0.0584612 0.538391 0.840665 
0.012356 -0.086043 -1.18236 0.000507716 0.419535 0.907739 
0.014584 -0.086049 -1.18243 -0.141203 0.386258 0.911519 
0.015667 -0.085879 -1.18007 -0.940628 -0.0745397 0.331153 
0.033193 -0.079914 -1.09715 -0.445199 -0.228415 0.865809 
0.034207 -0.079867 -1.09651 -0.399837 -0.248935 0.882135 
0.036244 -0.079801 -1.09558 -0.391283 -0.249581 0.88578 
0.038285 -0.07975 -1.09487 -0.408365 -0.160963 0.898515 
0.046342 -0.079408 -1.0901 -0.4068 0.732628 0.545684 
0.04834 -0.079314 -1.08879 -0.62032 0.623465 0.475915 
0.050261 -0.079107 -1.08591 -0.866719 0.36543 0.3395 
0.051179 -0.078944 -1.08364 -0.800931 0.0426685 0.597235 
0.060091 -0.079927 -1.09728 -0.295713 0.181391 0.937897 
0.0611 -0.079894 -1.09682 -0.428355 0.1045 0.897548 
0.063099 -0.079807 -1.09561 -0.244013 0.0658512 0.967534 
0.06516 -0.079801 -1.09552 -0.0744329 0.355088 0.931865 
0.066192 -0.079801 -1.09552 0.146762 0.370662 0.917099 
0.071088 -0.079502 -1.09134 0.279812 0.930607 0.235959 
0.074444 -0.079791 -1.09535 0.429329 0.874128 0.227105 
0.075608 -0.07993 -1.09728 0.267927 0.87285 0.407858 
0.077736 -0.07999 -1.09811 0.173278 0.806792 0.564855 
0.079832 -0.080016 -1.09846 0.134941 0.648171 0.749443 
0.081923 -0.080036 -1.09873 0.256525 0.354771 0.899073 
0.08403 -0.08007 -1.09919 0.280203 0.281676 0.917684 
0.088371 -0.080248 -1.10166 0.458053 0.227778 0.859247 
0.108807 -0.087496 -1.20231 0.540817 -0.105068 0.834553 
0.110011 -0.087553 -1.2031 0.634866 -0.00944387 0.772564 
0.015695 -0.08715 -1.18224 -0.244775 0.33963 0.90815 
0.051191 -0.079986 -1.0839 -0.777857 -0.16483 0.60644 
0.052149 -0.079888 -1.08256 -0.714484 -0.0683113 0.696309 
0.061058 -0.080873 -1.09606 -0.446559 0.132768 0.884849 
0.062082 -0.080861 -1.09588 -0.2817 0.380297 0.88092 
0.064118 -0.080824 -1.09537 -0.341821 0.728137 0.594116 
0.065145 -0.080816 -1.09526 -0.362586 0.574141 0.734094 
0.066108 -0.080731 -1.09409 -0.394406 0.661773 0.637574 
0.068717 -0.080166 -1.08633 0.349273 0.673189 0.651785 
0.06981 -0.080245 -1.08741 0.344321 0.74472 0.571694 
0.071951 -0.080346 -1.08879 0.457586 0.740611 0.492048 
0.072995 -0.080365 -1.08905 0.46786 0.760815 0.449742 
0.074234 -0.080596 -1.09222 0.572077 0.776968 0.262772 
0.076538 -0.080854 -1.09575 0.502996 0.742468 0.442422 
0.107637 -0.088598 -1.20189 0.468049 0.0293195 0.883216 
0.108845 -0.088659 -1.20273 0.498551 -0.0377221 0.866039 
0.111271 -0.088788 -1.20448 0.719949 0.103451 0.686273 
0.112582 -0.088928 -1.2064 0.759742 0.22256 0.610949 
-0.057546 -0.086235 -1.15469 -0.802296 -0.033113 0.596008 
-0.053033 -0.085972 -1.15113 -0.535606 0.28837 0.793706 
-0.048486 -0.085602 -1.14614 -0.566051 0.421449 0.708496 
-0.04408 -0.085436 -1.14389 -0.289123 0.485408 0.825098 
-0.03973 -0.08535 -1.14274 -0.091309 0.52752 0.844621 
-0.035433 -0.085372 -1.14305 0.173976 0.562583 0.808228 
-0.031189 -0.085547 -1.14541 0.410202 0.53002 0.742168 
-0.026944 -0.085776 -1.14853 0.538717 0.549305 0.638787 
-0.022684 -0.086032 -1.152 0.645968 0.482378 0.59164 
-0.018424 -0.086411 -1.15715 0.714131 0.560975 0.418717 
0.00345 -0.088295 -1.18266 -0.374795 0.400086 0.836337 
0.007893 -0.088167 -1.18094 -0.161774 0.462354 0.871813 
0.010113 -0.088128 -1.1804 0.0924617 0.437319 0.894541 
0.012343 -0.088178 -1.18107 0.119688 0.497847 0.858966 
0.014573 -0.088209 -1.1815 0.0218731 0.455151 0.890145 
0.036272 -0.081931 -1.09643 -0.418686 -0.487139 0.766419 
0.040329 -0.081775 -1.09431 -0.650678 -0.0525639 0.757532 
0.044276 -0.081444 -1.08982 -0.598549 0.501668 0.624555 
0.048262 -0.081237 -1.08701 -0.738099 0.423763 0.525009 
0.050235 -0.081114 -1.08533 -0.778437 0.134562 0.613131 
0.052178 -0.080954 -1.08316 -0.575296 0.136764 0.806431 
0.053164 -0.080901 -1.08244 -0.710243 -0.0961251 0.697363 
0.054077 -0.08074 -1.08026 -0.303372 0.329975 0.893914 
0.06206 -0.081866 -1.09549 -0.274246 0.407148 0.871218 
0.063078 -0.081846 -1.09522 -0.312929 0.651366 0.69123 
0.064997 -0.081664 -1.09275 -0.341821 0.728137 0.594116 
0.066705 -0.081234 -1.08693 -0.397172 0.823692 0.404705 
0.067579 -0.081054 -1.08448 -0.531683 0.609455 0.588113 
0.06861 -0.081064 -1.08461 0.281947 0.632843 0.721121 
0.070827 -0.081262 -1.08728 0.518996 0.531066 0.669785 
0.072961 -0.081355 -1.08853 0.490804 0.709584 0.505571 
0.074013 -0.081384 -1.08892 0.628142 0.606891 0.486951 
0.075256 -0.081618 -1.09209 0.718787 0.620728 0.313117 
0.077553 -0.081869 -1.09549 0.550186 0.707268 0.443923 
0.079737 -0.081991 -1.09713 0.430822 0.467403 0.771963 
0.081869 -0.082054 -1.09799 0.316242 0.314142 0.895157 
0.083993 -0.082108 -1.0987 0.396295 0.234451 0.887684 
0.086144 -0.082183 -1.09971 0.578562 0.117385 0.807147 
0.088413 -0.082366 -1.10218 0.537885 0.0946891 0.837684 
0.106471 -0.089702 -1.2015 0.360763 0.212869 0.90804 
0.107655 -0.089745 -1.20208 0.400995 0.111946 0.909214 
0.110039 -0.089843 -1.2034 0.583999 0.104303 0.805026 
0.112545 -0.090035 -1.20599 0.73708 0.326942 0.591458 
-0.058727 -0.087462 -1.15654 -0.801841 0.17034 0.572743 
0.053159 -0.081913 -1.08232 -0.592842 0.102122 0.798818 
0.05416 -0.081885 -1.08194 -0.303372 0.329975 0.893914 
0.065673 -0.082251 -1.0868 -0.531684 0.609455 0.588113 
0.066559 -0.082081 -1.08452 -0.531683 0.609455 0.588113 
0.067565 -0.08206 -1.08424 -0.531683 0.609455 0.588113 
0.073995 -0.08239 -1.08864 0.628142 0.60689 0.486951 
0.076316 -0.082681 -1.09253 0.747603 0.566661 0.346388 
0.085055 -0.08317 -1.09904 0.431575 0.208529 0.877644 
0.106453 -0.090819 -1.20129 0.349673 0.269983 0.897128 
0.111211 -0.091009 -1.20382 0.650687 0.34586 0.676009 
