ply
format ascii 1.0
comment VCGLIB generated
element vertex 1413
property float x
property float y
property float z
property float nx
property float ny
property float nz
element face 0
property list uchar int vertex_indices
end_header
0.041914 0.062574 -1.05588 0 0 0 
0.04281 0.062429 -1.05339 0 0 0 
0.044655 0.062231 -1.05 0 0 0 
0.046633 0.062227 -1.04994 0 0 0 
0.048644 0.062266 -1.05061 0 0 0 
0.133022 0.062811 -1.0596 0 0 0 
0.135186 0.062887 -1.0609 0 0 0 
0.136283 0.062932 -1.06166 0 0 0 
-0.022218 0.062733 -1.07597 0 0 0 
0.02397 0.061522 -1.05494 0 0 0 
0.136313 0.061944 -1.0619 0 0 0 
-0.025333 0.061894 -1.07908 0 0 0 
-0.023234 0.061724 -1.07608 0 0 0 
-0.021161 0.061595 -1.0738 0 0 0 
-0.017024 0.06128 -1.06826 0 0 0 
-0.012946 0.061045 -1.0641 0 0 0 
-0.008919 0.060948 -1.0624 0 0 0 
-0.004902 0.060833 -1.06036 0 0 0 
-0.000901 0.060709 -1.05818 0 0 0 
0.00309 0.060713 -1.05825 0 0 0 
0.007073 0.060643 -1.05701 0 0 0 
0.011046 0.060567 -1.05566 0 0 0 
0.015061 0.060703 -1.05807 0 0 0 
0.017064 0.060729 -1.05853 0 0 0 
0.019051 0.060699 -1.05799 0 0 0 
0.021037 0.060673 -1.05753 0 0 0 
0.023022 0.060649 -1.05711 0 0 0 
0.024027 0.060669 -1.05746 0 0 0 
0.032717 0.062021 -1.08131 0 0 0 
0.033736 0.062021 -1.08131 0 0 0 
0.035794 0.062053 -1.08187 0 0 0 
0.037799 0.061997 -1.08087 0 0 0 
0.038802 0.061971 -1.08042 0 0 0 
0.039745 0.061853 -1.07834 0 0 0 
0.041587 0.061571 -1.07335 0 0 0 
0.048637 0.060275 -1.05047 0 0 0 
0.05063 0.060289 -1.0507 0 0 0 
0.054632 0.060331 -1.05144 0 0 0 
0.058645 0.06038 -1.05229 0 0 0 
0.062649 0.060413 -1.05287 0 0 0 
0.066673 0.06046 -1.05369 0 0 0 
0.070676 0.060485 -1.05411 0 0 0 
0.074696 0.06052 -1.05472 0 0 0 
0.078698 0.060538 -1.05502 0 0 0 
0.082759 0.060597 -1.05605 0 0 0 
0.086838 0.060664 -1.05721 0 0 0 
0.090898 0.060712 -1.05805 0 0 0 
0.094953 0.060752 -1.05875 0 0 0 
0.099048 0.060815 -1.05983 0 0 0 
0.103128 0.060863 -1.06067 0 0 0 
0.107194 0.0609 -1.0613 0 0 0 
0.111269 0.060939 -1.06197 0 0 0 
0.115127 0.06086 -1.06057 0 0 0 
0.118956 0.060772 -1.059 0 0 0 
0.122994 0.060794 -1.05935 0 0 0 
0.126934 0.060767 -1.05886 0 0 0 
0.130876 0.060742 -1.05841 0 0 0 
0.135202 0.060892 -1.06104 0 0 0 
-0.034815 0.061453 -1.08942 0 0 0 
0.018081 0.059791 -1.05962 0 0 0 
0.020089 0.059822 -1.06018 0 0 0 
0.021086 0.059813 -1.06001 0 0 0 
0.022085 0.059813 -1.06001 0 0 0 
0.023095 0.059839 -1.06048 0 0 0 
0.032674 0.060921 -1.07988 0 0 0 
0.03469 0.060886 -1.07925 0 0 0 
0.038792 0.060936 -1.08015 0 0 0 
-0.03371 0.060285 -1.08687 0 0 0 
-0.023199 0.059604 -1.07445 0 0 0 
0.017088 0.058815 -1.06006 0 0 0 
0.018088 0.058816 -1.06008 0 0 0 
0.019118 0.05891 -1.0618 0 0 0 
0.021182 0.059081 -1.06491 0 0 0 
0.033632 0.059796 -1.07793 0 0 0 
0.035654 0.059778 -1.0776 0 0 0 
0.037709 0.059815 -1.07829 0 0 0 
0.039759 0.05984 -1.07873 0 0 0 
0.04175 0.059779 -1.07762 0 0 0 
0.043642 0.059588 -1.07413 0 0 0 
0.044497 0.059378 -1.07029 0 0 0 
0.052629 0.058325 -1.05105 0 0 0 
0.054635 0.05835 -1.05151 0 0 0 
0.056632 0.058364 -1.05177 0 0 0 
0.132996 0.058799 -1.0594 0 0 0 
0.13527 0.058919 -1.06158 0 0 0 
-0.03691 0.059465 -1.09067 0 0 0 
-0.034755 0.059295 -1.08753 0 0 0 
0.018114 0.057898 -1.06159 0 0 0 
0.027625 0.05897 -1.0815 0 0 0 
0.028629 0.058939 -1.08093 0 0 0 
0.030612 0.058834 -1.07897 0 0 0 
0.040737 0.058767 -1.0777 0 0 0 
0.041753 0.058767 -1.0777 0 0 0 
0.042737 0.058722 -1.07688 0 0 0 
0.044685 0.058615 -1.07488 0 0 0 
0.045652 0.058555 -1.07376 0 0 0 
0.053639 0.057354 -1.05144 0 0 0 
0.136523 0.058024 -1.06356 0 0 0 
-0.037969 0.058484 -1.09157 0 0 0 
-0.035802 0.058306 -1.08821 0 0 0 
-0.033669 0.058164 -1.08554 0 0 0 
-0.025247 0.057625 -1.07537 0 0 0 
-0.021113 0.057412 -1.07134 0 0 0 
-0.017008 0.057192 -1.06719 0 0 0 
-0.012963 0.057102 -1.0655 0 0 0 
-0.008929 0.057005 -1.06367 0 0 0 
-0.004906 0.056875 -1.06121 0 0 0 
-0.000901 0.056693 -1.05777 0 0 0 
0.003085 0.056637 -1.05672 0 0 0 
0.007082 0.056721 -1.05831 0 0 0 
0.011069 0.0567 -1.05791 0 0 0 
0.015075 0.056762 -1.05906 0 0 0 
0.017093 0.05683 -1.06035 0 0 0 
0.019141 0.056975 -1.06309 0 0 0 
0.021205 0.057133 -1.06607 0 0 0 
0.027612 0.057922 -1.08098 0 0 0 
0.029585 0.057796 -1.0786 0 0 0 
0.031583 0.057731 -1.07736 0 0 0 
0.035576 0.057618 -1.07522 0 0 0 
0.037589 0.057596 -1.07481 0 0 0 
0.039642 0.057635 -1.07554 0 0 0 
0.041713 0.057694 -1.07665 0 0 0 
0.043715 0.057658 -1.07596 0 0 0 
0.045723 0.057632 -1.07546 0 0 0 
0.046689 0.057572 -1.07433 0 0 0 
0.054638 0.056369 -1.05157 0 0 0 
0.058631 0.056394 -1.05205 0 0 0 
0.062638 0.056428 -1.05268 0 0 0 
0.066648 0.056462 -1.0533 0 0 0 
0.070653 0.056487 -1.05377 0 0 0 
0.074688 0.056533 -1.05461 0 0 0 
0.078735 0.056582 -1.05553 0 0 0 
0.082755 0.056608 -1.05602 0 0 0 
0.086805 0.056651 -1.05682 0 0 0 
0.090867 0.056699 -1.05769 0 0 0 
0.094939 0.056748 -1.0586 0 0 0 
0.098995 0.056783 -1.05926 0 0 0 
0.103084 0.056835 -1.06022 0 0 0 
0.107147 0.056868 -1.06084 0 0 0 
0.111192 0.05689 -1.06123 0 0 0 
0.115066 0.056827 -1.06001 0 0 0 
0.118974 0.056783 -1.05918 0 0 0 
0.122903 0.056752 -1.05857 0 0 0 
0.127004 0.0568 -1.05946 0 0 0 
0.131003 0.056801 -1.05946 0 0 0 
0.13528 0.056919 -1.06167 0 0 0 
0.024489 0.056752 -1.07808 0 0 0 
0.026574 0.056862 -1.08021 0 0 0 
0.046726 0.056604 -1.07521 0 0 0 
0.047719 0.056579 -1.07473 0 0 0 
0.04872 0.056565 -1.07446 0 0 0 
0.017116 0.054903 -1.06181 0 0 0 
0.019165 0.055036 -1.06441 0 0 0 
0.021226 0.055177 -1.06717 0 0 0 
0.025558 0.055849 -1.08033 0 0 0 
0.027552 0.055761 -1.07861 0 0 0 
0.02954 0.055677 -1.07694 0 0 0 
0.03156 0.055657 -1.07656 0 0 0 
0.033553 0.055597 -1.07538 0 0 0 
0.035535 0.055526 -1.07399 0 0 0 
0.037543 0.0555 -1.07348 0 0 0 
0.039563 0.055494 -1.07336 0 0 0 
0.041592 0.055501 -1.07349 0 0 0 
0.043625 0.055513 -1.07372 0 0 0 
0.045682 0.055552 -1.07448 0 0 0 
0.047724 0.055571 -1.07485 0 0 0 
0.053796 0.054536 -1.05456 0 0 0 
0.058631 0.054408 -1.05204 0 0 0 
0.060623 0.054415 -1.05218 0 0 0 
0.06264 0.054443 -1.05272 0 0 0 
0.064643 0.054458 -1.05301 0 0 0 
0.133172 0.054872 -1.06083 0 0 0 
0.135307 0.054926 -1.06188 0 0 0 
0.13791 0.055166 -1.06657 0 0 0 
0.024554 0.054862 -1.08097 0 0 0 
0.026556 0.054788 -1.0795 0 0 0 
0.028526 0.054662 -1.07698 0 0 0 
0.03056 0.054668 -1.07709 0 0 0 
0.050704 0.054493 -1.07356 0 0 0 
0.051707 0.054483 -1.07336 0 0 0 
0.053518 0.054267 -1.06904 0 0 0 
0.056756 0.053519 -1.05411 0 0 0 
0.057692 0.053465 -1.05303 0 0 0 
0.059635 0.053426 -1.05227 0 0 0 
0.06063 0.053429 -1.05231 0 0 0 
0.061639 0.053443 -1.05259 0 0 0 
0.136544 0.054017 -1.06374 0 0 0 
-0.037923 0.054298 -1.09022 0 0 0 
-0.033597 0.053953 -1.08321 0 0 0 
-0.029366 0.053685 -1.07777 0 0 0 
-0.025216 0.053501 -1.07404 0 0 0 
-0.021094 0.05332 -1.07036 0 0 0 
-0.017026 0.053222 -1.06837 0 0 0 
-0.012981 0.053156 -1.06703 0 0 0 
-0.008941 0.053061 -1.06511 0 0 0 
-0.004912 0.052931 -1.06246 0 0 0 
-0.000902 0.052744 -1.05865 0 0 0 
0.003085 0.05264 -1.05654 0 0 0 
0.007079 0.052712 -1.05801 0 0 0 
0.011103 0.052871 -1.06125 0 0 0 
0.015142 0.052998 -1.06381 0 0 0 
0.01718 0.053096 -1.06581 0 0 0 
0.019221 0.053185 -1.06761 0 0 0 
0.023541 0.053856 -1.08125 0 0 0 
0.025549 0.053792 -1.07995 0 0 0 
0.027543 0.05371 -1.07828 0 0 0 
0.029559 0.05368 -1.07766 0 0 0 
0.031588 0.053674 -1.07755 0 0 0 
0.033568 0.053591 -1.07585 0 0 0 
0.03557 0.053552 -1.07506 0 0 0 
0.039591 0.053507 -1.07414 0 0 0 
0.041543 0.053413 -1.07222 0 0 0 
0.043555 0.0534 -1.07196 0 0 0 
0.047589 0.053391 -1.07177 0 0 0 
0.049651 0.053436 -1.07266 0 0 0 
0.051713 0.053476 -1.07348 0 0 0 
0.052685 0.053435 -1.07265 0 0 0 
0.053694 0.053433 -1.07261 0 0 0 
0.05702 0.052769 -1.05909 0 0 0 
0.057824 0.052591 -1.05548 0 0 0 
0.058748 0.052527 -1.05417 0 0 0 
0.05971 0.052499 -1.0536 0 0 0 
0.061672 0.052478 -1.05316 0 0 0 
0.062665 0.052478 -1.05316 0 0 0 
0.064645 0.052472 -1.05305 0 0 0 
0.066615 0.05246 -1.05279 0 0 0 
0.07064 0.052499 -1.05358 0 0 0 
0.074671 0.052539 -1.05437 0 0 0 
0.0787 0.052574 -1.05506 0 0 0 
0.082731 0.052606 -1.05571 0 0 0 
0.086758 0.052633 -1.05624 0 0 0 
0.090828 0.052683 -1.05724 0 0 0 
0.094891 0.052725 -1.05807 0 0 0 
0.098939 0.052755 -1.05867 0 0 0 
0.103028 0.052803 -1.05964 0 0 0 
0.107141 0.052861 -1.06079 0 0 0 
0.111174 0.052876 -1.06107 0 0 0 
0.114959 0.052776 -1.05903 0 0 0 
0.118988 0.052791 -1.05931 0 0 0 
0.12302 0.052806 -1.05961 0 0 0 
0.12695 0.052778 -1.05901 0 0 0 
0.131309 0.052925 -1.06198 0 0 0 
0.135442 0.052974 -1.06296 0 0 0 
0.016182 0.052114 -1.0663 0 0 0 
0.017208 0.052176 -1.06758 0 0 0 
0.018228 0.052215 -1.06839 0 0 0 
0.022524 0.052841 -1.08136 0 0 0 
0.052676 0.052415 -1.07248 0 0 0 
0.058263 0.051986 -1.06359 0 0 0 
0.060015 0.051768 -1.05906 0 0 0 
0.06101 0.051764 -1.05898 0 0 0 
0.065646 0.051485 -1.05317 0 0 0 
-0.037917 0.052234 -1.09007 0 0 0 
-0.035724 0.052032 -1.08581 0 0 0 
0.013149 0.051041 -1.06489 0 0 0 
0.015186 0.05114 -1.06699 0 0 0 
0.019425 0.051711 -1.07904 0 0 0 
0.021491 0.051788 -1.08067 0 0 0 
0.023513 0.051753 -1.07993 0 0 0 
0.025525 0.051705 -1.07892 0 0 0 
0.029612 0.051738 -1.07961 0 0 0 
0.033605 0.051619 -1.07707 0 0 0 
0.041579 0.051434 -1.07316 0 0 0 
0.049539 0.051296 -1.07023 0 0 0 
0.051568 0.051307 -1.07045 0 0 0 
0.053638 0.051356 -1.07149 0 0 0 
0.055681 0.051376 -1.07191 0 0 0 
0.05769 0.051366 -1.07169 0 0 0 
0.059591 0.051263 -1.0695 0 0 0 
0.060531 0.051205 -1.06827 0 0 0 
0.06135 0.051048 -1.06497 0 0 0 
0.064763 0.050577 -1.055 0 0 0 
0.065737 0.050561 -1.05465 0 0 0 
0.066705 0.050541 -1.05423 0 0 0 
0.068666 0.050521 -1.05379 0 0 0 
0.070641 0.050512 -1.0536 0 0 0 
0.07264 0.05052 -1.05377 0 0 0 
0.074643 0.050531 -1.05399 0 0 0 
0.076672 0.050558 -1.05455 0 0 0 
0.080693 0.050585 -1.05511 0 0 0 
0.096902 0.050736 -1.05824 0 0 0 
0.100979 0.050778 -1.05912 0 0 0 
0.10302 0.0508 -1.05957 0 0 0 
0.105062 0.050821 -1.06 0 0 0 
0.107093 0.050836 -1.06031 0 0 0 
0.109112 0.050845 -1.06049 0 0 0 
0.111166 0.050869 -1.06099 0 0 0 
0.113117 0.050846 -1.06051 0 0 0 
0.114971 0.050782 -1.05914 0 0 0 
0.116951 0.050774 -1.05897 0 0 0 
0.129176 0.050869 -1.0609 0 0 0 
0.133682 0.051061 -1.06495 0 0 0 
0.135622 0.051035 -1.06439 0 0 0 
0.016248 0.050305 -1.07068 0 0 0 
0.060679 0.050319 -1.07092 0 0 0 
0.061668 0.050303 -1.07055 0 0 0 
0.065013 0.049773 -1.05912 0 0 0 
0.072652 0.049533 -1.05394 0 0 0 
0.073646 0.049534 -1.05394 0 0 0 
0.104005 0.049793 -1.05941 0 0 0 
0.105035 0.049808 -1.05973 0 0 0 
0.106049 0.049815 -1.05988 0 0 0 
0.107066 0.049823 -1.06004 0 0 0 
0.108082 0.04983 -1.0602 0 0 0 
0.109118 0.049846 -1.06054 0 0 0 
0.110162 0.049866 -1.06097 0 0 0 
0.111201 0.049884 -1.06134 0 0 0 
0.112307 0.04993 -1.06234 0 0 0 
0.114106 0.049841 -1.06041 0 0 0 
-0.037919 0.05018 -1.09012 0 0 0 
-0.033548 0.049793 -1.08161 0 0 0 
-0.029345 0.049583 -1.07701 0 0 0 
-0.025211 0.049439 -1.07386 0 0 0 
-0.021106 0.04931 -1.071 0 0 0 
-0.017044 0.049242 -1.06952 0 0 0 
-0.012989 0.049162 -1.06775 0 0 0 
-0.008949 0.049089 -1.06615 0 0 0 
-0.004919 0.048994 -1.06407 0 0 0 
-0.000904 0.048842 -1.06074 0 0 0 
0.00309 0.048739 -1.05847 0 0 0 
0.007088 0.048775 -1.05925 0 0 0 
0.01113 0.048984 -1.06384 0 0 0 
0.015225 0.049253 -1.06977 0 0 0 
0.017338 0.049527 -1.0758 0 0 0 
0.019432 0.049694 -1.07946 0 0 0 
0.023488 0.049663 -1.07878 0 0 0 
0.025508 0.049637 -1.07819 0 0 0 
0.027578 0.049705 -1.07969 0 0 0 
0.029628 0.049728 -1.08019 0 0 0 
0.031615 0.049651 -1.0785 0 0 0 
0.035609 0.04955 -1.07626 0 0 0 
0.039589 0.049451 -1.07409 0 0 0 
0.043564 0.049366 -1.07221 0 0 0 
0.047544 0.049301 -1.07077 0 0 0 
0.051519 0.04924 -1.06942 0 0 0 
0.055583 0.049267 -1.07002 0 0 0 
0.059678 0.049317 -1.07109 0 0 0 
0.061712 0.049328 -1.07134 0 0 0 
0.062763 0.04936 -1.07204 0 0 0 
0.072763 0.048613 -1.05558 0 0 0 
0.074699 0.048578 -1.05479 0 0 0 
0.076676 0.04857 -1.05461 0 0 0 
0.078668 0.048571 -1.05464 0 0 0 
0.080659 0.048573 -1.05466 0 0 0 
0.082687 0.048596 -1.05516 0 0 0 
0.086726 0.048628 -1.05586 0 0 0 
0.090788 0.048671 -1.05678 0 0 0 
0.094836 0.048702 -1.05746 0 0 0 
0.096867 0.048721 -1.05786 0 0 0 
0.098894 0.048736 -1.05819 0 0 0 
0.100917 0.048749 -1.05847 0 0 0 
0.115119 0.048846 -1.06053 0 0 0 
0.119029 0.048808 -1.05969 0 0 0 
0.123462 0.048981 -1.06346 0 0 0 
0.127236 0.048889 -1.06143 0 0 0 
0.12933 0.048924 -1.06219 0 0 0 
0.131558 0.049008 -1.06402 0 0 0 
0.133736 0.049071 -1.06539 0 0 0 
0.062769 0.048354 -1.07215 0 0 0 
0.063813 0.048379 -1.07271 0 0 0 
0.07193 0.047725 -1.058 0 0 0 
0.072927 0.047725 -1.05799 0 0 0 
0.073893 0.047704 -1.05752 0 0 0 
0.074856 0.047682 -1.05704 0 0 0 
0.075827 0.047666 -1.05667 0 0 0 
0.077747 0.047621 -1.05565 0 0 0 
0.097864 0.047722 -1.05784 0 0 0 
0.098883 0.047732 -1.05807 0 0 0 
0.099903 0.047743 -1.05831 0 0 0 
0.114506 0.048007 -1.06417 0 0 0 
0.130484 0.047978 -1.06345 0 0 0 
0.131571 0.048009 -1.06413 0 0 0 
0.132691 0.04805 -1.06507 0 0 0 
0.133738 0.048066 -1.06541 0 0 0 
-0.037924 0.048129 -1.09026 0 0 0 
-0.035705 0.047911 -1.08526 0 0 0 
0.009116 0.046936 -1.06292 0 0 0 
0.011136 0.047002 -1.06445 0 0 0 
0.013167 0.047087 -1.0664 0 0 0 
0.015243 0.04729 -1.07105 0 0 0 
0.017322 0.047453 -1.07477 0 0 0 
0.019441 0.047679 -1.07996 0 0 0 
0.021474 0.047673 -1.07981 0 0 0 
0.025491 0.047572 -1.07749 0 0 0 
0.029619 0.047675 -1.07986 0 0 0 
0.061666 0.047271 -1.07053 0 0 0 
0.063744 0.047315 -1.07154 0 0 0 
0.117182 0.046869 -1.06109 0 0 0 
0.121256 0.046896 -1.0617 0 0 0 
0.125618 0.04703 -1.06475 0 0 0 
0.127432 0.046958 -1.06309 0 0 0 
0.014211 0.046207 -1.06934 0 0 0 
0.016282 0.046361 -1.07296 0 0 0 
0.128448 0.04596 -1.06321 0 0 0 
-0.037919 0.046067 -1.09014 0 0 0 
-0.035677 0.045827 -1.08439 0 0 0 
-0.033539 0.045699 -1.08132 0 0 0 
-0.029346 0.045519 -1.07702 0 0 0 
-0.025222 0.045406 -1.07432 0 0 0 
-0.02113 0.04532 -1.07226 0 0 0 
-0.017063 0.045256 -1.07074 0 0 0 
-0.013005 0.045187 -1.06907 0 0 0 
-0.008962 0.045129 -1.06769 0 0 0 
-0.004927 0.045048 -1.06574 0 0 0 
-0.000907 0.045007 -1.06476 0 0 0 
0.003109 0.045015 -1.06496 0 0 0 
0.007125 0.045014 -1.06495 0 0 0 
0.009132 0.045008 -1.06479 0 0 0 
0.011146 0.045032 -1.06536 0 0 0 
0.013176 0.045105 -1.06711 0 0 0 
0.014225 0.045242 -1.07041 0 0 0 
0.015253 0.045299 -1.07177 0 0 0 
0.019458 0.045683 -1.08095 0 0 0 
0.023452 0.045523 -1.07712 0 0 0 
0.025473 0.045506 -1.07671 0 0 0 
0.027554 0.045591 -1.07874 0 0 0 
0.031587 0.04554 -1.07753 0 0 0 
0.035587 0.045459 -1.07558 0 0 0 
0.039564 0.045369 -1.07342 0 0 0 
0.04353 0.045285 -1.07138 0 0 0 
0.047514 0.045231 -1.07008 0 0 0 
0.051513 0.045198 -1.0693 0 0 0 
0.055489 0.045153 -1.06819 0 0 0 
0.059551 0.045178 -1.06878 0 0 0 
0.063626 0.04521 -1.06954 0 0 0 
0.117585 0.04502 -1.06479 0 0 0 
0.11941 0.044951 -1.06313 0 0 0 
0.121429 0.044956 -1.06324 0 0 0 
0.123561 0.045003 -1.06434 0 0 0 
0.125696 0.045048 -1.06542 0 0 0 
0.127636 0.045024 -1.06482 0 0 0 
0.128567 0.044998 -1.0642 0 0 0 
0.077294 0.044522 -1.07737 0 0 0 
0.080425 0.044569 -1.07851 0 0 0 
0.081441 0.044568 -1.07849 0 0 0 
0.122555 0.043997 -1.06432 0 0 0 
-0.037889 0.043976 -1.08927 0 0 0 
-0.035678 0.043783 -1.08442 0 0 0 
-0.033535 0.043654 -1.0812 0 0 0 
-0.031438 0.043573 -1.07917 0 0 0 
0.005132 0.043134 -1.06819 0 0 0 
0.007144 0.04312 -1.06783 0 0 0 
0.009153 0.0431 -1.06733 0 0 0 
0.017459 0.043739 -1.08335 0 0 0 
0.019461 0.043649 -1.0811 0 0 0 
0.021458 0.043565 -1.07899 0 0 0 
0.025491 0.043505 -1.07747 0 0 0 
0.057451 0.043098 -1.06721 0 0 0 
0.059474 0.043105 -1.06739 0 0 0 
0.061482 0.043102 -1.06731 0 0 0 
0.063512 0.043114 -1.0676 0 0 0 
0.078319 0.043511 -1.0775 0 0 0 
0.079385 0.043539 -1.07819 0 0 0 
0.080442 0.043561 -1.07874 0 0 0 
0.081558 0.043614 -1.08007 0 0 0 
0.103436 0.044261 -1.09622 0 0 0 
0.104446 0.044251 -1.09597 0 0 0 
0.10547 0.044247 -1.09586 0 0 0 
0.106372 0.044192 -1.09449 0 0 0 
0.119659 0.043034 -1.06538 0 0 0 
0.121606 0.043012 -1.06481 0 0 0 
0.122615 0.043014 -1.06485 0 0 0 
0.12363 0.043017 -1.06494 0 0 0 
-0.036769 0.04284 -1.08648 0 0 0 
-0.035673 0.042754 -1.08428 0 0 0 
-0.034598 0.042688 -1.08259 0 0 0 
0.018463 0.042678 -1.08236 0 0 0 
0.079316 0.042484 -1.07724 0 0 0 
0.081568 0.0426 -1.0802 0 0 0 
0.102427 0.043237 -1.09648 0 0 0 
0.103492 0.04325 -1.09682 0 0 0 
0.105485 0.043219 -1.09602 0 0 0 
0.106512 0.043217 -1.09595 0 0 0 
-0.037883 0.041914 -1.08909 0 0 0 
-0.035675 0.041733 -1.08433 0 0 0 
-0.033539 0.04162 -1.08135 0 0 0 
-0.029369 0.041489 -1.07792 0 0 0 
-0.025252 0.041402 -1.07565 0 0 0 
-0.021167 0.041346 -1.07417 0 0 0 
-0.017088 0.041276 -1.07233 0 0 0 
-0.013024 0.041213 -1.07067 0 0 0 
-0.008977 0.041166 -1.06945 0 0 0 
-0.004941 0.041147 -1.06894 0 0 0 
-0.000911 0.04119 -1.07007 0 0 0 
0.003125 0.041207 -1.07054 0 0 0 
0.005144 0.041208 -1.07056 0 0 0 
0.014436 0.041813 -1.08645 0 0 0 
0.015448 0.041782 -1.08564 0 0 0 
0.017457 0.041691 -1.08325 0 0 0 
0.019449 0.041584 -1.08043 0 0 0 
0.023452 0.041458 -1.07712 0 0 0 
0.027545 0.041506 -1.07838 0 0 0 
0.031528 0.041397 -1.07549 0 0 0 
0.03552 0.041323 -1.07355 0 0 0 
0.039502 0.041254 -1.07171 0 0 0 
0.04347 0.041184 -1.06989 0 0 0 
0.047437 0.041126 -1.06834 0 0 0 
0.051418 0.041088 -1.06733 0 0 0 
0.055394 0.041051 -1.06635 0 0 0 
0.075952 0.041296 -1.07273 0 0 0 
0.078122 0.041373 -1.07476 0 0 0 
0.080335 0.04147 -1.07729 0 0 0 
0.082618 0.041596 -1.08062 0 0 0 
0.091758 0.04205 -1.09252 0 0 0 
0.09376 0.042024 -1.09183 0 0 0 
0.095932 0.042074 -1.09312 0 0 0 
0.098171 0.04215 -1.09513 0 0 0 
0.100302 0.042178 -1.09585 0 0 0 
0.102435 0.042206 -1.09657 0 0 0 
0.104462 0.04219 -1.09613 0 0 0 
0.10644 0.042154 -1.0952 0 0 0 
0.108357 0.042097 -1.09369 0 0 0 
-0.037886 0.04089 -1.08917 0 0 0 
-0.036765 0.040785 -1.08635 0 0 0 
-0.034609 0.040659 -1.08296 0 0 0 
0.00414 0.040249 -1.07192 0 0 0 
0.005151 0.040253 -1.07204 0 0 0 
0.006163 0.040261 -1.07225 0 0 0 
0.014438 0.040796 -1.08666 0 0 0 
0.074745 0.040179 -1.0699 0 0 0 
-0.037877 0.039853 -1.08892 0 0 0 
-0.035679 0.039692 -1.08447 0 0 0 
-0.033554 0.039597 -1.08183 0 0 0 
-0.031465 0.039535 -1.08013 0 0 0 
0.001109 0.039272 -1.07286 0 0 0 
0.003134 0.039301 -1.07367 0 0 0 
0.004147 0.039304 -1.07375 0 0 0 
0.015435 0.0397 -1.08471 0 0 0 
0.017438 0.039604 -1.08205 0 0 0 
0.05728 0.038954 -1.06401 0 0 0 
0.059232 0.038918 -1.06299 0 0 0 
0.0602 0.038896 -1.06238 0 0 0 
0.077983 0.039275 -1.07283 0 0 0 
0.080164 0.039353 -1.07498 0 0 0 
0.091725 0.039974 -1.09212 0 0 0 
0.093774 0.03997 -1.092 0 0 0 
0.095833 0.03997 -1.09199 0 0 0 
0.09798 0.040006 -1.09297 0 0 0 
0.100238 0.040085 -1.09515 0 0 0 
0.104295 0.040058 -1.09437 0 0 0 
0.108501 0.040087 -1.09516 0 0 0 
0.004157 0.038388 -1.07652 0 0 0 
0.060149 0.037862 -1.06149 0 0 0 
0.061112 0.037838 -1.06081 0 0 0 
0.061516 0.037475 -1.0505 0 0 0 
0.076873 0.038214 -1.07146 0 0 0 
0.077989 0.038266 -1.07292 0 0 0 
0.079029 0.03828 -1.07331 0 0 0 
0.111524 0.039028 -1.09441 0 0 0 
0.115448 0.038959 -1.09245 0 0 0 
0.130003 0.039 -1.09354 0 0 0 
0.131035 0.039 -1.09354 0 0 0 
0.132147 0.039024 -1.09422 0 0 0 
-0.037884 0.037806 -1.08913 0 0 0 
-0.035693 0.037661 -1.0849 0 0 0 
-0.03358 0.037585 -1.08267 0 0 0 
-0.029422 0.037489 -1.07989 0 0 0 
-0.025306 0.037423 -1.07798 0 0 0 
-0.021208 0.037365 -1.07629 0 0 0 
-0.017115 0.037288 -1.07405 0 0 0 
-0.013047 0.037238 -1.07258 0 0 0 
-0.009002 0.037236 -1.07252 0 0 0 
-0.004964 0.037285 -1.07395 0 0 0 
-0.000916 0.037321 -1.07502 0 0 0 
0.001113 0.037384 -1.07685 0 0 0 
0.003148 0.037446 -1.07864 0 0 0 
0.004183 0.037604 -1.08327 0 0 0 
0.015418 0.037611 -1.08347 0 0 0 
0.019425 0.03746 -1.07907 0 0 0 
0.023446 0.037385 -1.07688 0 0 0 
0.027506 0.037384 -1.07684 0 0 0 
0.031507 0.037313 -1.07477 0 0 0 
0.03546 0.037209 -1.07171 0 0 0 
0.039426 0.037138 -1.06965 0 0 0 
0.043386 0.037075 -1.0678 0 0 0 
0.047343 0.037021 -1.0662 0 0 0 
0.051287 0.036965 -1.06458 0 0 0 
0.05521 0.036904 -1.06277 0 0 0 
0.059153 0.036863 -1.06158 0 0 0 
0.061097 0.036828 -1.06055 0 0 0 
0.06304 0.036794 -1.05957 0 0 0 
0.063489 0.036478 -1.05035 0 0 0 
0.079042 0.037274 -1.07349 0 0 0 
0.080097 0.037293 -1.07406 0 0 0 
0.091676 0.037894 -1.09153 0 0 0 
0.093857 0.037944 -1.09298 0 0 0 
0.097828 0.037885 -1.09126 0 0 0 
0.099928 0.037902 -1.09173 0 0 0 
0.102303 0.038019 -1.09515 0 0 0 
0.104302 0.037995 -1.09444 0 0 0 
0.106282 0.037965 -1.09356 0 0 0 
0.110499 0.037998 -1.09448 0 0 0 
0.114632 0.038 -1.09452 0 0 0 
0.131044 0.037971 -1.09362 0 0 0 
0.133842 0.038181 -1.09973 0 0 0 
0.01037 0.036798 -1.08974 0 0 0 
0.063987 0.035766 -1.05869 0 0 0 
0.092833 0.036915 -1.09306 0 0 0 
0.127875 0.036918 -1.09298 0 0 0 
0.13002 0.036942 -1.09369 0 0 0 
-0.037907 0.035774 -1.08982 0 0 0 
-0.035728 0.035649 -1.08598 0 0 0 
-0.015095 0.035273 -1.07441 0 0 0 
-0.002952 0.035404 -1.07843 0 0 0 
-0.00092 0.035449 -1.07983 0 0 0 
0.001119 0.03554 -1.08264 0 0 0 
0.009347 0.035784 -1.09017 0 0 0 
0.011375 0.035701 -1.08759 0 0 0 
0.013396 0.035624 -1.08522 0 0 0 
0.061015 0.03478 -1.05912 0 0 0 
0.062986 0.034765 -1.05865 0 0 0 
0.092794 0.035869 -1.09259 0 0 0 
0.093917 0.035904 -1.09369 0 0 0 
0.096024 0.035921 -1.0942 0 0 0 
0.097996 0.035888 -1.09316 0 0 0 
0.099966 0.035855 -1.09215 0 0 0 
0.10227 0.035942 -1.0948 0 0 0 
0.104538 0.036012 -1.09695 0 0 0 
0.106427 0.035951 -1.09508 0 0 0 
0.108368 0.03591 -1.0938 0 0 0 
0.1104 0.0359 -1.09349 0 0 0 
0.11247 0.035903 -1.09357 0 0 0 
0.114557 0.035911 -1.0938 0 0 0 
0.116614 0.035909 -1.09374 0 0 0 
0.126834 0.035884 -1.0929 0 0 0 
0.129136 0.035951 -1.09496 0 0 0 
0.131781 0.03611 -1.09985 0 0 0 
0.133873 0.036115 -1.1 0 0 0 
0.135942 0.036113 -1.09994 0 0 0 
0.010356 0.034696 -1.08826 0 0 0 
0.07005 0.033803 -1.0598 0 0 0 
0.071086 0.03382 -1.06035 0 0 0 
0.092671 0.034792 -1.09113 0 0 0 
0.095016 0.034898 -1.09447 0 0 0 
0.097103 0.034906 -1.09474 0 0 0 
0.107478 0.034924 -1.09526 0 0 0 
0.108423 0.034896 -1.09437 0 0 0 
0.109406 0.034881 -1.09388 0 0 0 
0.126896 0.03487 -1.09344 0 0 0 
0.128295 0.03497 -1.09662 0 0 0 
0.129691 0.035068 -1.09972 0 0 0 
0.130753 0.035074 -1.09993 0 0 0 
0.134905 0.035076 -1.09995 0 0 0 
-0.037944 0.033751 -1.0909 0 0 0 
-0.033656 0.033575 -1.08516 0 0 0 
-0.029491 0.033492 -1.08245 0 0 0 
-0.025366 0.033434 -1.08056 0 0 0 
-0.02125 0.033369 -1.07842 0 0 0 
-0.017156 0.033316 -1.0767 0 0 0 
-0.015122 0.033306 -1.07637 0 0 0 
-0.013097 0.033317 -1.07672 0 0 0 
-0.009053 0.033377 -1.07871 0 0 0 
-0.002963 0.033497 -1.08264 0 0 0 
-0.000923 0.03354 -1.08402 0 0 0 
0.009331 0.033671 -1.08833 0 0 0 
0.011361 0.033608 -1.08626 0 0 0 
0.015406 0.033497 -1.08262 0 0 0 
0.019415 0.033372 -1.07853 0 0 0 
0.023434 0.033305 -1.07632 0 0 0 
0.027479 0.033288 -1.07576 0 0 0 
0.031454 0.033203 -1.07297 0 0 0 
0.035417 0.033124 -1.0704 0 0 0 
0.03938 0.033063 -1.06838 0 0 0 
0.043316 0.032992 -1.06606 0 0 0 
0.04725 0.032932 -1.06408 0 0 0 
0.051159 0.032865 -1.06188 0 0 0 
0.055071 0.032809 -1.06006 0 0 0 
0.058976 0.032758 -1.05836 0 0 0 
0.062951 0.032749 -1.05806 0 0 0 
0.064974 0.032763 -1.05852 0 0 0 
0.06701 0.032782 -1.05915 0 0 0 
0.069056 0.032805 -1.05989 0 0 0 
0.071091 0.032822 -1.06044 0 0 0 
0.093886 0.03383 -1.09333 0 0 0 
0.095044 0.033875 -1.09481 0 0 0 
0.096107 0.033886 -1.09516 0 0 0 
0.098172 0.033886 -1.09516 0 0 0 
0.102131 0.03383 -1.09329 0 0 0 
0.104737 0.034007 -1.09907 0 0 0 
0.106845 0.034018 -1.09944 0 0 0 
0.108725 0.033958 -1.09745 0 0 0 
0.114505 0.033832 -1.0933 0 0 0 
0.116518 0.033818 -1.09283 0 0 0 
0.118548 0.033809 -1.09254 0 0 0 
0.120614 0.033811 -1.09258 0 0 0 
0.127567 0.034017 -1.0993 0 0 0 
0.129748 0.034045 -1.10022 0 0 0 
0.131798 0.034039 -1.1 0 0 0 
0.133867 0.034038 -1.09994 0 0 0 
-0.001946 0.032533 -1.08455 0 0 0 
0.010349 0.03262 -1.08749 0 0 0 
0.06401 0.031781 -1.05908 0 0 0 
0.065027 0.03179 -1.05939 0 0 0 
0.066054 0.031804 -1.05985 0 0 0 
0.072131 0.031839 -1.06103 0 0 0 
0.073163 0.031853 -1.06148 0 0 0 
0.074198 0.031868 -1.06198 0 0 0 
0.092417 0.032644 -1.0881 0 0 0 
0.094977 0.03282 -1.09403 0 0 0 
0.097206 0.032876 -1.09592 0 0 0 
0.103248 0.032826 -1.09421 0 0 0 
0.104791 0.032987 -1.09964 0 0 0 
0.105881 0.033004 -1.1002 0 0 0 
0.114596 0.032826 -1.09418 0 0 0 
0.115562 0.032808 -1.09354 0 0 0 
0.116555 0.032797 -1.09318 0 0 0 
0.117556 0.032789 -1.0929 0 0 0 
0.118558 0.032781 -1.09264 0 0 0 
0.119598 0.032784 -1.09272 0 0 0 
0.120633 0.032785 -1.09276 0 0 0 
-0.037965 0.03171 -1.09149 0 0 0 
-0.03584 0.031651 -1.08943 0 0 0 
-0.033713 0.031582 -1.08703 0 0 0 
-0.031617 0.031535 -1.08542 0 0 0 
-0.023335 0.031404 -1.08086 0 0 0 
-0.019225 0.031348 -1.0789 0 0 0 
-0.017188 0.031343 -1.07873 0 0 0 
-0.015164 0.031361 -1.07938 0 0 0 
-0.013141 0.031392 -1.08043 0 0 0 
-0.011116 0.031424 -1.08154 0 0 0 
0.007288 0.031654 -1.08958 0 0 0 
0.009331 0.031618 -1.08833 0 0 0 
0.011366 0.031573 -1.08675 0 0 0 
0.013385 0.031502 -1.08429 0 0 0 
0.053064 0.030805 -1.05992 0 0 0 
0.056968 0.030754 -1.05814 0 0 0 
0.058939 0.030741 -1.0577 0 0 0 
0.060977 0.030763 -1.05845 0 0 0 
0.063061 0.030806 -1.05994 0 0 0 
0.065182 0.030864 -1.06195 0 0 0 
0.067177 0.03086 -1.06182 0 0 0 
0.069161 0.030852 -1.06153 0 0 0 
0.071136 0.03084 -1.06111 0 0 0 
0.073163 0.030851 -1.06148 0 0 0 
0.096024 0.031793 -1.0942 0 0 0 
0.097174 0.031832 -1.09556 0 0 0 
0.098208 0.031832 -1.09556 0 0 0 
0.100142 0.03179 -1.0941 0 0 0 
0.102119 0.031763 -1.09316 0 0 0 
0.103163 0.031768 -1.09331 0 0 0 
0.104577 0.031884 -1.09737 0 0 0 
0.105968 0.031992 -1.10112 0 0 0 
0.107032 0.032 -1.10139 0 0 0 
0.109137 0.032008 -1.10167 0 0 0 
0.113198 0.031982 -1.10073 0 0 0 
0.115075 0.031927 -1.09882 0 0 0 
0.11692 0.031865 -1.09665 0 0 0 
0.118955 0.031857 -1.09634 0 0 0 
0.125619 0.031974 -1.10041 0 0 0 
0.127669 0.031968 -1.10019 0 0 0 
0.129715 0.031961 -1.09993 0 0 0 
0.057975 0.02976 -1.05831 0 0 0 
0.058987 0.029768 -1.05857 0 0 0 
0.060148 0.029848 -1.06148 0 0 0 
0.062241 0.029892 -1.06306 0 0 0 
0.070225 0.029877 -1.06249 0 0 0 
0.07121 0.02987 -1.06224 0 0 0 
0.07217 0.029853 -1.0616 0 0 0 
0.073171 0.029853 -1.06161 0 0 0 
0.074207 0.029867 -1.06211 0 0 0 
0.094592 0.030631 -1.08954 0 0 0 
0.095909 0.030724 -1.09288 0 0 0 
0.097095 0.030773 -1.09466 0 0 0 
0.099163 0.030774 -1.09469 0 0 0 
0.101108 0.030738 -1.09339 0 0 0 
0.103149 0.030732 -1.09316 0 0 0 
0.105967 0.030953 -1.10111 0 0 0 
0.116249 0.030927 -1.10013 0 0 0 
0.117287 0.030927 -1.10013 0 0 0 
0.118333 0.03093 -1.10021 0 0 0 
0.130758 0.030925 -1.09998 0 0 0 
-0.033784 0.029594 -1.08937 0 0 0 
-0.029589 0.029506 -1.0861 0 0 0 
-0.025433 0.029435 -1.08345 0 0 0 
-0.023359 0.029396 -1.08201 0 0 0 
-0.021306 0.029377 -1.0813 0 0 0 
-0.017251 0.029415 -1.08274 0 0 0 
-0.013189 0.029461 -1.08444 0 0 0 
-0.011155 0.029488 -1.08544 0 0 0 
0.007285 0.029586 -1.08912 0 0 0 
0.009332 0.029569 -1.08847 0 0 0 
0.011363 0.029515 -1.08645 0 0 0 
0.015387 0.029377 -1.08132 0 0 0 
0.019394 0.02927 -1.07734 0 0 0 
0.023427 0.029235 -1.07601 0 0 0 
0.027457 0.029206 -1.07493 0 0 0 
0.031427 0.029128 -1.07203 0 0 0 
0.035372 0.029048 -1.06903 0 0 0 
0.039322 0.028988 -1.0668 0 0 0 
0.043253 0.028926 -1.06449 0 0 0 
0.047161 0.028862 -1.06207 0 0 0 
0.051075 0.02881 -1.06013 0 0 0 
0.053027 0.028784 -1.05916 0 0 0 
0.061462 0.028995 -1.06698 0 0 0 
0.06348 0.028997 -1.06707 0 0 0 
0.067506 0.028998 -1.06709 0 0 0 
0.069522 0.028999 -1.06714 0 0 0 
0.071481 0.028978 -1.06634 0 0 0 
0.073382 0.028935 -1.06471 0 0 0 
0.075258 0.028884 -1.06281 0 0 0 
0.098098 0.029732 -1.09433 0 0 0 
0.099105 0.029724 -1.09405 0 0 0 
0.100117 0.029719 -1.09383 0 0 0 
0.102118 0.029701 -1.09315 0 0 0 
0.104275 0.029728 -1.09416 0 0 0 
0.10707 0.029933 -1.10178 0 0 0 
0.109137 0.02993 -1.10167 0 0 0 
0.115225 0.029893 -1.10026 0 0 0 
0.117287 0.02989 -1.10014 0 0 0 
0.127718 0.029904 -1.10062 0 0 0 
0.129793 0.029904 -1.1006 0 0 0 
0.130802 0.029897 -1.10036 0 0 0 
-0.034852 0.0286 -1.09066 0 0 0 
-0.024413 0.028414 -1.08351 0 0 0 
-0.023377 0.028396 -1.08281 0 0 0 
-0.022356 0.028396 -1.08281 0 0 0 
0.007287 0.028566 -1.0894 0 0 0 
0.008313 0.028566 -1.0894 0 0 0 
0.010347 0.028513 -1.08733 0 0 0 
0.054022 0.027783 -1.05909 0 0 0 
0.072593 0.028013 -1.06791 0 0 0 
0.073586 0.028008 -1.06771 0 0 0 
0.074516 0.027979 -1.06659 0 0 0 
0.100087 0.028678 -1.0935 0 0 0 
0.1011 0.028673 -1.0933 0 0 0 
-0.033818 0.027566 -1.09047 0 0 0 
-0.031739 0.027546 -1.08965 0 0 0 
-0.027545 0.02746 -1.08624 0 0 0 
-0.025468 0.027429 -1.08499 0 0 0 
-0.023421 0.027427 -1.0849 0 0 0 
-0.021387 0.027442 -1.0855 0 0 0 
-0.019351 0.027456 -1.08606 0 0 0 
-0.017312 0.02747 -1.08662 0 0 0 
-0.015272 0.027485 -1.08722 0 0 0 
-0.013228 0.027496 -1.08766 0 0 0 
-0.011168 0.027471 -1.0867 0 0 0 
0.007294 0.027565 -1.09047 0 0 0 
0.008321 0.027566 -1.09047 0 0 0 
0.009333 0.027519 -1.0886 0 0 0 
0.011358 0.027453 -1.08596 0 0 0 
0.01337 0.027382 -1.08311 0 0 0 
0.049092 0.026818 -1.06048 0 0 0 
0.051039 0.026791 -1.05938 0 0 0 
0.055354 0.026946 -1.0656 0 0 0 
0.057441 0.026982 -1.06705 0 0 0 
0.059478 0.026994 -1.06749 0 0 0 
0.061504 0.026999 -1.06772 0 0 0 
0.063519 0.027 -1.06774 0 0 0 
0.065526 0.026998 -1.06764 0 0 0 
0.067555 0.027004 -1.06787 0 0 0 
0.069573 0.027005 -1.06793 0 0 0 
0.071613 0.027015 -1.06833 0 0 0 
0.073662 0.027028 -1.06882 0 0 0 
0.075672 0.027026 -1.06874 0 0 0 
0.077599 0.026995 -1.0675 0 0 0 
0.079539 0.02697 -1.0665 0 0 0 
0.08156 0.026974 -1.06663 0 0 0 
0.083662 0.027003 -1.06779 0 0 0 
0.085689 0.027007 -1.06795 0 0 0 
0.086459 0.026933 -1.06499 0 0 0 
0.101085 0.027637 -1.09313 0 0 0 
0.102108 0.027635 -1.09305 0 0 0 
0.104209 0.027646 -1.09347 0 0 0 
0.115227 0.027818 -1.10028 0 0 0 
0.127935 0.027875 -1.10251 0 0 0 
-0.022453 0.026468 -1.08757 0 0 0 
-0.021434 0.026476 -1.08791 0 0 0 
-0.020412 0.02648 -1.08808 0 0 0 
-0.019386 0.026479 -1.08804 0 0 0 
-0.018361 0.02648 -1.08808 0 0 0 
-0.016298 0.02646 -1.08728 0 0 0 
0.008317 0.026524 -1.08991 0 0 0 
0.009332 0.026487 -1.08839 0 0 0 
0.010344 0.026452 -1.08695 0 0 0 
0.050067 0.025804 -1.05995 0 0 0 
0.051049 0.025796 -1.05959 0 0 0 
0.054362 0.025946 -1.06584 0 0 0 
0.07675 0.026041 -1.06973 0 0 0 
0.077777 0.026048 -1.06998 0 0 0 
0.078769 0.026042 -1.06975 0 0 0 
0.102097 0.026602 -1.09294 0 0 0 
0.103131 0.026603 -1.09297 0 0 0 
-0.031742 0.025493 -1.08977 0 0 0 
-0.029673 0.02548 -1.08923 0 0 0 
-0.027603 0.025465 -1.08857 0 0 0 
-0.025549 0.025463 -1.08848 0 0 0 
-0.023501 0.025466 -1.08864 0 0 0 
-0.021442 0.025458 -1.08829 0 0 0 
-0.020413 0.025455 -1.08813 0 0 0 
-0.019387 0.025454 -1.08809 0 0 0 
-0.017336 0.025454 -1.08809 0 0 0 
0.007287 0.025485 -1.08946 0 0 0 
0.008314 0.025485 -1.08946 0 0 0 
0.009329 0.025454 -1.08809 0 0 0 
0.011349 0.025384 -1.08506 0 0 0 
0.015361 0.025254 -1.07944 0 0 0 
0.019368 0.025171 -1.07588 0 0 0 
0.023428 0.025176 -1.07607 0 0 0 
0.027426 0.025121 -1.0737 0 0 0 
0.031403 0.025064 -1.07121 0 0 0 
0.035361 0.025006 -1.06871 0 0 0 
0.039291 0.024943 -1.06596 0 0 0 
0.043205 0.024882 -1.06332 0 0 0 
0.047119 0.024831 -1.06111 0 0 0 
0.049087 0.024814 -1.06038 0 0 0 
0.050089 0.024815 -1.06042 0 0 0 
0.051214 0.024876 -1.06305 0 0 0 
0.055424 0.024967 -1.06696 0 0 0 
0.059416 0.024953 -1.06636 0 0 0 
0.06338 0.024931 -1.06538 0 0 0 
0.065381 0.024927 -1.06523 0 0 0 
0.067407 0.024934 -1.06551 0 0 0 
0.069476 0.024955 -1.06643 0 0 0 
0.071546 0.024976 -1.06732 0 0 0 
0.07574 0.025032 -1.06972 0 0 0 
0.077787 0.025041 -1.07012 0 0 0 
0.079881 0.025065 -1.07115 0 0 0 
0.081929 0.025074 -1.07152 0 0 0 
0.08387 0.02505 -1.07048 0 0 0 
0.085889 0.02505 -1.07047 0 0 0 
0.102052 0.025559 -1.09244 0 0 0 
0.005227 0.024428 -1.08813 0 0 0 
0.006253 0.024428 -1.08813 0 0 0 
0.008311 0.02445 -1.08912 0 0 0 
0.010336 0.024383 -1.08611 0 0 0 
0.050313 0.023921 -1.06522 0 0 0 
0.051398 0.023959 -1.06692 0 0 0 
0.052407 0.023961 -1.06699 0 0 0 
0.054418 0.02396 -1.06695 0 0 0 
0.068378 0.023917 -1.06498 0 0 0 
0.069395 0.023921 -1.06518 0 0 0 
0.07041 0.023925 -1.06533 0 0 0 
0.08705 0.024082 -1.07237 0 0 0 
0.088063 0.024083 -1.07239 0 0 0 
0.101992 0.024514 -1.0918 0 0 0 
0.103077 0.024528 -1.09239 0 0 0 
0.005228 0.023406 -1.08831 0 0 0 
0.007276 0.023396 -1.08788 0 0 0 
0.00932 0.023378 -1.08701 0 0 0 
0.011334 0.023306 -1.0836 0 0 0 
0.013334 0.023231 -1.08009 0 0 0 
0.017346 0.023151 -1.07631 0 0 0 
0.019357 0.023129 -1.0753 0 0 0 
0.021402 0.023148 -1.07617 0 0 0 
0.023444 0.023161 -1.0768 0 0 0 
0.025424 0.023115 -1.07463 0 0 0 
0.041231 0.022892 -1.06412 0 0 0 
0.043191 0.022868 -1.06295 0 0 0 
0.045155 0.022847 -1.062 0 0 0 
0.047187 0.022861 -1.06265 0 0 0 
0.049341 0.022932 -1.06595 0 0 0 
0.05142 0.022962 -1.06739 0 0 0 
0.053415 0.022954 -1.06701 0 0 0 
0.055377 0.022934 -1.06604 0 0 0 
0.057349 0.022918 -1.06531 0 0 0 
0.06534 0.022903 -1.06457 0 0 0 
0.067321 0.022894 -1.06414 0 0 0 
0.069387 0.022914 -1.06504 0 0 0 
0.070414 0.022921 -1.0654 0 0 0 
0.071456 0.022933 -1.06595 0 0 0 
0.073532 0.022954 -1.06692 0 0 0 
0.077727 0.023004 -1.06929 0 0 0 
0.082002 0.023073 -1.07249 0 0 0 
0.084089 0.02309 -1.07332 0 0 0 
0.086199 0.023113 -1.07439 0 0 0 
0.088212 0.02311 -1.07422 0 0 0 
0.101682 0.023413 -1.08844 0 0 0 
0.103069 0.023495 -1.09231 0 0 0 
0.00524 0.02243 -1.09082 0 0 0 
0.006234 0.02231 -1.0849 0 0 0 
0.007257 0.02231 -1.0849 0 0 0 
0.008296 0.022354 -1.08706 0 0 0 
0.010321 0.022301 -1.08449 0 0 0 
0.020369 0.022113 -1.0752 0 0 0 
0.021418 0.02215 -1.07703 0 0 0 
0.022434 0.02215 -1.07703 0 0 0 
0.044178 0.021857 -1.06259 0 0 0 
0.045174 0.021855 -1.06245 0 0 0 
0.046252 0.02189 -1.06421 0 0 0 
0.048378 0.021945 -1.06688 0 0 0 
0.049391 0.021948 -1.06704 0 0 0 
0.050414 0.021955 -1.0674 0 0 0 
0.07041 0.021915 -1.06534 0 0 0 
0.089373 0.022133 -1.07603 0 0 0 
0.103016 0.022453 -1.09173 0 0 0 
0.00524 0.021402 -1.09087 0 0 0 
0.006237 0.021296 -1.08541 0 0 0 
0.00726 0.021296 -1.08541 0 0 0 
0.009305 0.021294 -1.08531 0 0 0 
0.011291 0.021181 -1.07943 0 0 0 
0.013319 0.02117 -1.07887 0 0 0 
0.015329 0.021137 -1.0772 0 0 0 
0.017332 0.021103 -1.07544 0 0 0 
0.01935 0.021092 -1.07488 0 0 0 
0.021408 0.021123 -1.07648 0 0 0 
0.022431 0.021132 -1.07691 0 0 0 
0.023429 0.021116 -1.07611 0 0 0 
0.027395 0.021046 -1.07246 0 0 0 
0.031362 0.020994 -1.0698 0 0 0 
0.035319 0.020949 -1.06744 0 0 0 
0.039262 0.020904 -1.06515 0 0 0 
0.041211 0.020874 -1.06359 0 0 0 
0.043197 0.020865 -1.0631 0 0 0 
0.045287 0.020904 -1.06515 0 0 0 
0.047375 0.020939 -1.06694 0 0 0 
0.049387 0.020939 -1.06694 0 0 0 
0.05137 0.020928 -1.06633 0 0 0 
0.055317 0.0209 -1.06488 0 0 0 
0.059325 0.020897 -1.06473 0 0 0 
0.06336 0.020903 -1.06504 0 0 0 
0.067408 0.020913 -1.06552 0 0 0 
0.06944 0.02092 -1.06588 0 0 0 
0.071484 0.02093 -1.06638 0 0 0 
0.075601 0.020956 -1.06773 0 0 0 
0.079769 0.020993 -1.06964 0 0 0 
0.084059 0.021057 -1.07293 0 0 0 
0.088409 0.02113 -1.07665 0 0 0 
0.090611 0.02117 -1.07872 0 0 0 
0.099179 0.021263 -1.08346 0 0 0 
0.101365 0.021293 -1.08501 0 0 0 
0.104164 0.021448 -1.093 0 0 0 
0.106511 0.021506 -1.09597 0 0 0 
0.006255 0.020332 -1.08865 0 0 0 
0.01031 0.020235 -1.08339 0 0 0 
0.011312 0.0202 -1.08149 0 0 0 
0.012309 0.020163 -1.07949 0 0 0 
0.01432 0.02013 -1.07769 0 0 0 
0.018332 0.020073 -1.0746 0 0 0 
0.022416 0.020102 -1.07616 0 0 0 
0.044338 0.019924 -1.06648 0 0 0 
0.045377 0.019939 -1.06728 0 0 0 
0.046399 0.019946 -1.06765 0 0 0 
0.100346 0.02027 -1.08506 0 0 0 
0.102713 0.020334 -1.08849 0 0 0 
0.10535 0.020447 -1.09463 0 0 0 
0.007272 0.019281 -1.08724 0 0 0 
0.009296 0.019229 -1.08426 0 0 0 
0.010311 0.019214 -1.08344 0 0 0 
0.01131 0.019178 -1.08136 0 0 0 
0.01331 0.019122 -1.07819 0 0 0 
0.015314 0.019086 -1.07609 0 0 0 
0.017319 0.01906 -1.07465 0 0 0 
0.018326 0.019053 -1.07424 0 0 0 
0.019341 0.019056 -1.07442 0 0 0 
0.02139 0.019077 -1.07557 0 0 0 
0.023405 0.019066 -1.07497 0 0 0 
0.025404 0.019045 -1.07379 0 0 0 
0.029369 0.018991 -1.07069 0 0 0 
0.033328 0.018946 -1.06813 0 0 0 
0.035293 0.01892 -1.06663 0 0 0 
0.037289 0.018912 -1.06618 0 0 0 
0.039259 0.018893 -1.06508 0 0 0 
0.041335 0.018924 -1.06684 0 0 0 
0.043399 0.018947 -1.06814 0 0 0 
0.045394 0.018939 -1.06769 0 0 0 
0.047376 0.018926 -1.06696 0 0 0 
0.049337 0.018907 -1.06586 0 0 0 
0.069429 0.018905 -1.0657 0 0 0 
0.090606 0.019134 -1.07866 0 0 0 
0.092824 0.019172 -1.08083 0 0 0 
0.095088 0.019217 -1.08342 0 0 0 
0.097431 0.019277 -1.08681 0 0 0 
0.099403 0.019262 -1.08595 0 0 0 
0.100385 0.019254 -1.08548 0 0 0 
0.101508 0.019273 -1.08656 0 0 0 
0.102717 0.019307 -1.08854 0 0 0 
0.10424 0.0194 -1.09381 0 0 0 
0.106467 0.01943 -1.09552 0 0 0 
0.010303 0.018179 -1.08264 0 0 0 
0.018324 0.018038 -1.07416 0 0 0 
0.0363 0.017915 -1.06669 0 0 0 
0.038354 0.017935 -1.06788 0 0 0 
0.0394 0.017953 -1.06897 0 0 0 
0.040408 0.017953 -1.06897 0 0 0 
0.041416 0.017953 -1.06896 0 0 0 
0.042412 0.017948 -1.06866 0 0 0 
0.09401 0.018184 -1.08277 0 0 0 
0.095261 0.018228 -1.08541 0 0 0 
0.096392 0.018249 -1.08665 0 0 0 
0.100494 0.018249 -1.08667 0 0 0 
0.102723 0.018282 -1.0886 0 0 0 
0.10542 0.018394 -1.09537 0 0 0 
0.007275 0.017237 -1.0877 0 0 0 
0.009292 0.017174 -1.0837 0 0 0 
0.011302 0.017124 -1.08049 0 0 0 
0.015301 0.017041 -1.07517 0 0 0 
0.017306 0.01702 -1.07381 0 0 0 
0.019348 0.017035 -1.07476 0 0 0 
0.023382 0.017022 -1.07394 0 0 0 
0.027382 0.016991 -1.07197 0 0 0 
0.029362 0.016967 -1.07044 0 0 0 
0.031351 0.016951 -1.06944 0 0 0 
0.033342 0.016938 -1.0686 0 0 0 
0.035384 0.016951 -1.06941 0 0 0 
0.037442 0.01697 -1.07063 0 0 0 
0.039414 0.01695 -1.06934 0 0 0 
0.041418 0.016945 -1.06901 0 0 0 
0.043388 0.016927 -1.06787 0 0 0 
0.047346 0.016902 -1.06629 0 0 0 
0.051324 0.016888 -1.06537 0 0 0 
0.055337 0.016887 -1.06527 0 0 0 
0.059335 0.016881 -1.0649 0 0 0 
0.063347 0.01688 -1.06483 0 0 0 
0.067371 0.016882 -1.06494 0 0 0 
0.071461 0.0169 -1.06604 0 0 0 
0.07559 0.016924 -1.06758 0 0 0 
0.079809 0.016965 -1.07018 0 0 0 
0.084044 0.017005 -1.07274 0 0 0 
0.088374 0.01706 -1.07623 0 0 0 
0.092809 0.017129 -1.08064 0 0 0 
0.09517 0.017188 -1.08437 0 0 0 
0.097546 0.017247 -1.08811 0 0 0 
0.099607 0.017248 -1.0882 0 0 0 
0.101698 0.017255 -1.08861 0 0 0 
0.104391 0.017361 -1.09541 0 0 0 
0.10652 0.017372 -1.09607 0 0 0 
0.030368 0.015955 -1.07031 0 0 0 
0.031368 0.015951 -1.07 0 0 0 
0.032403 0.015964 -1.07088 0 0 0 
0.033445 0.015979 -1.07193 0 0 0 
0.034454 0.015979 -1.07189 0 0 0 
0.10985 0.016372 -1.09839 0 0 0 
0.111012 0.016391 -1.09965 0 0 0 
0.00929 0.015127 -1.08347 0 0 0 
0.017308 0.014995 -1.0739 0 0 0 
0.019373 0.015027 -1.07619 0 0 0 
0.02139 0.015018 -1.07559 0 0 0 
0.025402 0.014992 -1.07371 0 0 0 
0.027424 0.014991 -1.07363 0 0 0 
0.029431 0.014982 -1.07298 0 0 0 
0.031466 0.014988 -1.0734 0 0 0 
0.033458 0.014974 -1.07236 0 0 0 
0.035448 0.01496 -1.07138 0 0 0 
0.037429 0.014945 -1.07026 0 0 0 
0.039402 0.014928 -1.06901 0 0 0 
0.041389 0.014917 -1.06825 0 0 0 
0.095108 0.015132 -1.08366 0 0 0 
0.09755 0.015194 -1.08815 0 0 0 
0.099831 0.015229 -1.09068 0 0 0 
0.101936 0.015236 -1.0912 0 0 0 
0.104524 0.015314 -1.09682 0 0 0 
0.108818 0.015336 -1.09842 0 0 0 
0.111013 0.015354 -1.09966 0 0 0 
0.026478 0.014014 -1.07636 0 0 0 
0.027484 0.014009 -1.076 0 0 0 
0.028479 0.014 -1.07527 0 0 0 
0.029483 0.013995 -1.0749 0 0 0 
0.030465 0.01398 -1.07378 0 0 0 
0.011287 0.01303 -1.07905 0 0 0 
0.015291 0.012976 -1.07449 0 0 0 
0.017315 0.012974 -1.07435 0 0 0 
0.019412 0.013022 -1.07837 0 0 0 
0.023442 0.013003 -1.07673 0 0 0 
0.025464 0.012998 -1.07635 0 0 0 
0.027485 0.012994 -1.07604 0 0 0 
0.029484 0.012981 -1.07494 0 0 0 
0.031473 0.012966 -1.07365 0 0 0 
0.035437 0.012935 -1.07106 0 0 0 
0.039412 0.012914 -1.06929 0 0 0 
0.043383 0.012896 -1.06775 0 0 0 
0.04736 0.012882 -1.06661 0 0 0 
0.051344 0.012873 -1.0658 0 0 0 
0.055319 0.012862 -1.06493 0 0 0 
0.059322 0.01286 -1.06467 0 0 0 
0.063342 0.01286 -1.06473 0 0 0 
0.067356 0.01286 -1.0647 0 0 0 
0.07144 0.012872 -1.06572 0 0 0 
0.075581 0.012893 -1.06745 0 0 0 
0.079787 0.012923 -1.06989 0 0 0 
0.084049 0.012957 -1.0728 0 0 0 
0.088396 0.013002 -1.0765 0 0 0 
0.092869 0.01306 -1.08136 0 0 0 
0.095134 0.013091 -1.08396 0 0 0 
0.097609 0.013149 -1.08882 0 0 0 
0.099975 0.01319 -1.09228 0 0 0 
0.102099 0.013199 -1.09297 0 0 0 
0.104832 0.013284 -1.1001 0 0 0 
0.107053 0.013302 -1.10162 0 0 0 
0.109029 0.01329 -1.10059 0 0 0 
0.111061 0.013285 -1.10014 0 0 0 
0.11319 0.013291 -1.10067 0 0 0 
0.016303 0.011962 -1.07444 0 0 0 
0.018405 0.012011 -1.07895 0 0 0 
0.013282 0.010963 -1.0759 0 0 0 
0.015292 0.010949 -1.07456 0 0 0 
0.016305 0.010949 -1.07457 0 0 0 
0.017367 0.01098 -1.07765 0 0 0 
0.018424 0.011005 -1.08006 0 0 0 
0.019451 0.01101 -1.08057 0 0 0 
0.021454 0.010993 -1.07887 0 0 0 
0.025426 0.010951 -1.07472 0 0 0 
0.029454 0.010942 -1.07384 0 0 0 
0.095199 0.011053 -1.0847 0 0 0 
0.099896 0.011121 -1.0914 0 0 0 
0.102102 0.011137 -1.093 0 0 0 
0.104891 0.011215 -1.10073 0 0 0 
0.109341 0.011246 -1.10377 0 0 0 
0.111254 0.011229 -1.10207 0 0 0 
0.113232 0.011219 -1.10109 0 0 0 
0.115383 0.011226 -1.10181 0 0 0 
0.117747 0.011254 -1.10452 0 0 0 
0.016314 0.009941 -1.07519 0 0 0 
0.018444 0.009997 -1.08128 0 0 0 
0.100927 0.010092 -1.09142 0 0 0 
0.110447 0.010211 -1.10443 0 0 0 
0.116493 0.010193 -1.10249 0 0 0 
0.117599 0.010199 -1.10312 0 0 0 
0.118805 0.010213 -1.10468 0 0 0 
0.007255 0.009005 -1.08466 0 0 0 
0.011267 0.008943 -1.07719 0 0 0 
0.013278 0.00893 -1.07551 0 0 0 
0.015295 0.008924 -1.07475 0 0 0 
0.017425 0.008977 -1.08128 0 0 0 
0.019464 0.008977 -1.08131 0 0 0 
0.023456 0.008945 -1.07738 0 0 0 
0.02741 0.00891 -1.07308 0 0 0 
0.031433 0.008903 -1.07227 0 0 0 
0.035458 0.008898 -1.07168 0 0 0 
0.039437 0.008885 -1.06998 0 0 0 
0.043404 0.008871 -1.06828 0 0 0 
0.047377 0.00886 -1.067 0 0 0 
0.051357 0.008853 -1.06608 0 0 0 
0.055341 0.008847 -1.06536 0 0 0 
0.059337 0.008844 -1.06495 0 0 0 
0.063354 0.008844 -1.06495 0 0 0 
0.067403 0.008848 -1.06545 0 0 0 
0.071473 0.008854 -1.06623 0 0 0 
0.075606 0.008868 -1.06782 0 0 0 
0.0798 0.008886 -1.07006 0 0 0 
0.084071 0.008911 -1.07309 0 0 0 
0.088423 0.008942 -1.07684 0 0 0 
0.092927 0.008985 -1.08205 0 0 0 
0.095272 0.009014 -1.08555 0 0 0 
0.097495 0.00903 -1.08753 0 0 0 
0.09965 0.009039 -1.08868 0 0 0 
0.100768 0.009048 -1.08968 0 0 0 
0.107214 0.00916 -1.1033 0 0 0 
0.109436 0.009171 -1.10475 0 0 0 
0.110541 0.009177 -1.10539 0 0 0 
0.111518 0.009171 -1.10473 0 0 0 
0.115531 0.009159 -1.10324 0 0 0 
0.117606 0.009159 -1.10318 0 0 0 
0.119849 0.009171 -1.10469 0 0 0 
0.014282 0.00791 -1.07478 0 0 0 
0.016369 0.007939 -1.07885 0 0 0 
0.018451 0.00796 -1.08168 0 0 0 
0.100807 0.008023 -1.09011 0 0 0 
0.110549 0.008135 -1.10546 0 0 0 
0.121073 0.008142 -1.10638 0 0 0 
0.013271 0.006897 -1.07493 0 0 0 
0.014284 0.006897 -1.07494 0 0 0 
0.015326 0.00691 -1.07697 0 0 0 
0.016412 0.00694 -1.08173 0 0 0 
0.017436 0.006942 -1.08197 0 0 0 
0.019459 0.006936 -1.08104 0 0 0 
0.021467 0.006926 -1.07953 0 0 0 
0.090736 0.006932 -1.08023 0 0 0 
0.092998 0.006948 -1.08288 0 0 0 
0.095238 0.006963 -1.08516 0 0 0 
0.097421 0.006973 -1.0867 0 0 0 
0.099635 0.006984 -1.08851 0 0 0 
0.100828 0.006996 -1.09034 0 0 0 
0.102078 0.007011 -1.09274 0 0 0 
0.109479 0.00709 -1.10518 0 0 0 
0.11165 0.007096 -1.10605 0 0 0 
0.11575 0.007091 -1.10536 0 0 0 
0.11779 0.007089 -1.10493 0 0 0 
0.014284 0.005883 -1.07496 0 0 0 
0.016422 0.005923 -1.08238 0 0 0 
0.01845 0.005919 -1.08161 0 0 0 
0.098481 0.00595 -1.08709 0 0 0 
0.099635 0.005957 -1.08852 0 0 0 
0.100804 0.005966 -1.09008 0 0 0 
0.110556 0.00605 -1.10554 0 0 0 
0.114805 0.006054 -1.10631 0 0 0 
0.007222 0.00489 -1.07972 0 0 0 
0.011248 0.004871 -1.07535 0 0 0 
0.013271 0.004869 -1.07499 0 0 0 
0.014319 0.004881 -1.07761 0 0 0 
0.015405 0.004903 -1.08258 0 0 0 
0.017444 0.004903 -1.08247 0 0 0 
0.019458 0.004896 -1.08099 0 0 0 
0.023465 0.004882 -1.07777 0 0 0 
0.027474 0.004872 -1.07559 0 0 0 
0.031427 0.004856 -1.07207 0 0 0 
0.035413 0.004848 -1.07031 0 0 0 
0.03944 0.004847 -1.07006 0 0 0 
0.043434 0.004843 -1.06902 0 0 0 
0.047412 0.004837 -1.0678 0 0 0 
0.051397 0.004833 -1.06691 0 0 0 
0.055395 0.004831 -1.06641 0 0 0 
0.05939 0.004829 -1.06592 0 0 0 
0.063404 0.004828 -1.06581 0 0 0 
0.067453 0.00483 -1.06625 0 0 0 
0.071534 0.004835 -1.06715 0 0 0 
0.075681 0.004842 -1.06889 0 0 0 
0.079894 0.004853 -1.07134 0 0 0 
0.084168 0.004867 -1.07435 0 0 0 
0.088551 0.004885 -1.07842 0 0 0 
0.092945 0.004902 -1.08226 0 0 0 
0.097341 0.004918 -1.08579 0 0 0 
0.099641 0.004931 -1.08858 0 0 0 
0.10208 0.00495 -1.09276 0 0 0 
0.109169 0.004991 -1.10202 0 0 0 
0.114806 0.00501 -1.10632 0 0 0 
0.115849 0.00501 -1.10632 0 0 0 
0.117883 0.005008 -1.10581 0 0 0 
0.012259 0.003856 -1.0751 0 0 0 
0.013273 0.003856 -1.07511 0 0 0 
0.014346 0.003872 -1.0797 0 0 0 
0.016442 0.003886 -1.08369 0 0 0 
0.018457 0.00388 -1.08205 0 0 0 
0.103457 0.003932 -1.09648 0 0 0 
0.009231 0.002845 -1.07648 0 0 0 
0.011248 0.002842 -1.07527 0 0 0 
0.012259 0.002841 -1.07512 0 0 0 
0.013304 0.002848 -1.0777 0 0 0 
0.014385 0.002861 -1.08267 0 0 0 
0.015421 0.002864 -1.08372 0 0 0 
0.016442 0.002864 -1.08372 0 0 0 
0.017448 0.002861 -1.08272 0 0 0 
0.019463 0.002857 -1.08125 0 0 0 
0.02147 0.002853 -1.07966 0 0 0 
0.086394 0.002846 -1.07687 0 0 0 
0.099675 0.002878 -1.08896 0 0 0 
0.102153 0.00289 -1.09355 0 0 0 
0.103457 0.002898 -1.09648 0 0 0 
0.012271 0.001829 -1.07613 0 0 0 
0.013342 0.001837 -1.08076 0 0 0 
0.014393 0.001841 -1.08322 0 0 0 
0.016445 0.001842 -1.08388 0 0 0 
0.018447 0.001838 -1.08148 0 0 0 
0.100901 0.001854 -1.09114 0 0 0 
0.003155 0.000817 -1.08081 0 0 0 
0.007205 0.000815 -1.07715 0 0 0 
0.009226 0.000814 -1.07592 0 0 0 
0.011255 0.000814 -1.07601 0 0 0 
0.0123 0.000816 -1.07868 0 0 0 
0.013353 0.000818 -1.08165 0 0 0 
0.015414 0.000819 -1.08323 0 0 0 
0.017432 0.000818 -1.08172 0 0 0 
0.01844 0.000817 -1.08106 0 0 0 
0.01945 0.000817 -1.08055 0 0 0 
0.021465 0.000816 -1.07942 0 0 0 
0.023481 0.000816 -1.07851 0 0 0 
0.027483 0.000814 -1.07595 0 0 0 
0.031469 0.000812 -1.07351 0 0 0 
0.035458 0.00081 -1.07169 0 0 0 
0.03941 0.000809 -1.06923 0 0 0 
0.043421 0.000808 -1.06871 0 0 0 
0.047435 0.000808 -1.06833 0 0 0 
0.051453 0.000808 -1.0681 0 0 0 
0.055464 0.000807 -1.06775 0 0 0 
0.059489 0.000807 -1.06772 0 0 0 
0.063511 0.000807 -1.06762 0 0 0 
0.067564 0.000808 -1.06804 0 0 0 
0.071659 0.000808 -1.06904 0 0 0 
0.075827 0.00081 -1.07098 0 0 0 
0.080023 0.000812 -1.07309 0 0 0 
0.084235 0.000813 -1.07522 0 0 0 
0.08635 0.000814 -1.07631 0 0 0 
0.088475 0.000815 -1.07748 0 0 0 
0.092834 0.000817 -1.08095 0 0 0 
0.097372 0.000821 -1.08614 0 0 0 
0.099683 0.000823 -1.08905 0 0 0 
0.00821 -0.000201 -1.07573 0 0 0 
0.00922 -0.000201 -1.07525 0 0 0 
0.010235 -0.000201 -1.07541 0 0 0 
0.011254 -0.000201 -1.07586 0 0 0 
0.01944 -0.000202 -1.07996 0 0 0 
0.020449 -0.000202 -1.07947 0 0 0 
0.021461 -0.000202 -1.07922 0 0 0 
0.022472 -0.000202 -1.0789 0 0 0 
0.087395 -0.000202 -1.07668 0 0 0 
0.100713 -0.000204 -1.08908 0 0 0 
0.003147 -0.001219 -1.07834 0 0 0 
0.025504 -0.001219 -1.07808 0 0 0 
0.027504 -0.001217 -1.07679 0 0 0 
0.029492 -0.001216 -1.07526 0 0 0 
0.086341 -0.001217 -1.07619 0 0 0 
0.087396 -0.001217 -1.07669 0 0 0 
0.088506 -0.001219 -1.07786 0 0 0 
0.090761 -0.001222 -1.08054 0 0 0 
0.095167 -0.001226 -1.08434 0 0 0 
0.09735 -0.001228 -1.0859 0 0 0 
0.00213 -0.002235 -1.07774 0 0 0 
0.003144 -0.002234 -1.07723 0 0 0 
0.004157 -0.002232 -1.07657 0 0 0 
0.087481 -0.002235 -1.07776 0 0 0 
0.098369 -0.002252 -1.08584 0 0 0 
0.027524 -0.003251 -1.07758 0 0 0 
0.029521 -0.003247 -1.0763 0 0 0 
0.031508 -0.003243 -1.07486 0 0 0 
0.035477 -0.003235 -1.07227 0 0 0 
0.039477 -0.003232 -1.07108 0 0 0 
0.043478 -0.003229 -1.07012 0 0 0 
0.047445 -0.003224 -1.06855 0 0 0 
0.051448 -0.003223 -1.06798 0 0 0 
0.055482 -0.003223 -1.06811 0 0 0 
0.059516 -0.003223 -1.0682 0 0 0 
0.063576 -0.003225 -1.06872 0 0 0 
0.067651 -0.003227 -1.06942 0 0 0 
0.07171 -0.003228 -1.06981 0 0 0 
0.075807 -0.003231 -1.0707 0 0 0 
0.079987 -0.003237 -1.0726 0 0 0 
0.084296 -0.003247 -1.076 0 0 0 
0.086467 -0.003252 -1.07779 0 0 0 
0.088655 -0.003258 -1.0797 0 0 0 
0.092999 -0.003268 -1.0829 0 0 0 
0.095181 -0.003272 -1.0845 0 0 0 
0.027525 -0.004268 -1.07762 0 0 0 
0.028532 -0.004267 -1.0773 0 0 0 
0.030527 -0.004261 -1.07599 0 0 0 
