ply
format ascii 1.0
comment VCGLIB generated
element vertex 838
property float x
property float y
property float z
property float nx
property float ny
property float nz
element face 0
property list uchar int vertex_indices
end_header
0.576041 0.798757 0.255459 -0.0750335 -0.94299 -0.324253 
0.780677 0.436442 1.25926 -0.0137926 -0.948076 -0.317745 
0.0810436 -0.143998 1.5804 -0.0347338 -0.913393 -0.405593 
-0.134663 0.952486 -0.241276 0.231117 -0.923622 -0.305791 
-2.29924 -0.343496 1.51157 0.0177161 0.975031 0.22136 
0.104985 -0.144786 1.58015 0.0736173 -0.928065 -0.365069 
-1.79597 -0.0841907 0.376938 0.271837 0.279223 -0.920945 
0.241645 -0.678262 2.84721 -0.755508 -0.365892 0.543443 
-0.121172 0.72113 0.426788 0.0644069 -0.921552 -0.382876 
0.176083 0.64192 -0.0493319 -0.383851 -0.0413202 0.92247 
0.226011 -0.312641 2.80307 0.00129011 0.995735 -0.0922476 
-0.884392 0.723134 0.383224 0.162497 -0.887705 -0.430785 
-1.74109 0.169719 0.828759 0.0695484 -0.706682 -0.704105 
-1.77362 -0.351103 1.6163 -0.0272987 0.982803 0.182628 
0.180991 -0.199454 1.72448 0.144743 -0.894254 -0.423509 
-1.88629 0.190955 -0.0401915 0.318097 -0.2372 0.917906 
0.281302 -0.686413 2.86549 0.054166 -0.962136 -0.267133 
-0.672856 0.713464 0.403577 0.0358915 -0.945016 -0.325049 
0.289424 -0.972818 2.94828 0.708424 0.357 -0.60884 
0.318479 -0.423199 2.71214 -0.8473 0.115722 -0.518355 
0.316061 -0.97002 2.80454 -0.0582883 -0.898343 -0.435411 
-1.63113 0.612236 -0.0820696 0.652116 0.614935 -0.443396 
0.337022 -0.884956 2.9468 0.859877 0.12721 -0.494399 
0.990448 0.607424 0.752611 0.0100579 -0.930118 -0.367124 
1.33202 -0.963654 2.41983 -0.341138 -0.842496 -0.416923 
0.33922 -0.817956 2.94604 0.534418 -0.129073 -0.835307 
-1.00379 0.406419 1.22985 0.0865487 -0.904562 -0.417466 
0.0717081 -0.319992 3.16056 -0.234823 -0.872519 -0.428449 
-0.944767 -1.305 2.81777 0.669327 0.209532 -0.71281 
0.43316 -0.925805 2.99741 -0.0333581 0.0694788 -0.997026 
1.97822 0.400652 1.30499 0.0456558 -0.98631 -0.158457 
0.43109 -0.817787 3.00578 0.423153 0.625115 -0.655875 
1.11857 0.276453 1.70465 0.0389929 -0.887395 -0.459357 
0.377166 -0.530897 2.51358 0.0916812 0.0520209 -0.994429 
-0.224994 0.142422 2.00554 -0.569652 -0.782593 0.251088 
1.48 0.277044 1.11332 0.0378017 0.350571 -0.935773 
0.684437 0.460975 1.15555 -0.0792057 -0.931641 -0.354642 
-0.940933 -0.373865 2.6624 0.648208 -0.00282425 -0.761458 
0.419331 -0.414567 2.612 -0.75779 0.545787 -0.357591 
1.42927 -0.318621 1.50769 -0.360397 -0.0742924 -0.929836 
-0.847088 -0.105281 2.57405 -0.0876169 -0.916527 -0.390258 
0.522562 -0.974244 2.99698 0.379602 0.217758 -0.899157 
-0.978962 0.4499 -0.148874 0.860913 0.411051 -0.299776 
0.533374 -0.500994 2.38538 -0.296075 -0.419521 -0.858104 
0.528147 -0.829079 3.01866 0.310754 0.369619 -0.875679 
0.53168 -0.87226 2.99989 -0.230468 -0.628961 -0.742491 
0.481363 -0.581095 2.5575 0.122099 -0.964976 -0.232191 
-0.579125 -0.330508 2.9544 -0.134372 0.357671 -0.92413 
0.483076 0.544134 0.958535 -0.0320611 -0.95011 -0.310262 
-0.274406 0.14617 1.97467 -0.106389 -0.950161 -0.293044 
0.477236 -0.572826 2.51939 0.151564 -0.878996 -0.4521 
1.11502 0.182192 0.71842 -0.68661 -0.413459 0.598013 
1.1794 -0.0686089 1.8613 -0.729343 0.0970104 -0.677235 
0.568008 -0.97574 2.9965 -0.273087 0.950428 -0.148696 
-1.33028 0.112883 0.0176162 0.0516501 -0.967061 -0.249249 
-1.87354 0.778572 0.198598 -0.0395555 -0.945938 -0.321926 
1.38213 0.190298 1.0028 0.53652 -0.27818 -0.796719 
0.570322 -0.817582 3.01697 -0.595849 -0.126007 -0.793149 
-0.385571 0.954594 -0.237821 -0.0546617 -0.902537 -0.42713 
0.579758 -0.982378 2.94524 -0.703168 0.553768 -0.445977 
0.115901 0.373375 -0.281652 0.168258 -0.162255 0.972298 
0.999806 -0.498239 2.39742 0.0158175 -0.938217 -0.345685 
0.565789 -0.93644 2.87138 -0.244199 -0.232002 -0.941564 
-1.07987 -0.27647 2.66872 -0.175067 0.865377 -0.469547 
2.38067 0.500429 1.10946 -0.0145579 -0.959593 -0.281015 
1.27524 -0.572514 2.3316 -0.244586 0.0183706 -0.969454 
0.632103 -0.924633 2.96945 0.802852 -0.0682303 -0.592262 
-0.276324 -0.16199 1.61484 0.0118865 -0.94967 -0.313027 
0.570437 -0.666969 2.81227 0.0266959 -0.924259 -0.380831 
0.664834 -0.932728 2.95 -0.118677 0.670463 -0.73239 
0.77924 -1.07425 2.87058 -0.684898 -0.56516 -0.459901 
0.0168217 -0.274053 3.1013 0.0409182 -0.914896 -0.401612 
0.722374 -0.981682 2.73366 -0.855404 0.465378 -0.227393 
-0.531609 -0.128694 2.705 0.0814111 -0.905051 -0.417439 
1.12036 -0.118451 1.95789 -0.907928 0.13742 -0.395958 
0.671647 -0.550566 2.45288 0.052683 -0.951738 -0.302357 
0.284333 0.9841 -0.208759 0.0245222 -0.795884 -0.604952 
-2.03563 0.156851 1.81437 0.0627819 0.996454 -0.0560129 
0.429532 0.244337 1.53018 -0.032375 -0.89894 -0.436874 
1.39588 -0.927494 2.31668 -0.475166 -0.533757 -0.699515 
0.428802 -0.635391 2.6521 0.186982 -0.914204 -0.359539 
0.788697 -1.12881 2.919 -0.708393 -0.411431 -0.573501 
-0.553062 -1.2812 3.40499 0.196973 0.979941 -0.0302718 
1.11471 0.530166 0.993632 -0.0744251 -0.916374 -0.393344 
-0.167893 -0.972194 3.46153 -0.232468 -0.177764 -0.956221 
0.76785 0.315086 1.58617 -0.0180432 -0.888552 -0.458422 
0.668297 -0.305416 2.36771 -0.727562 0.374915 -0.574537 
-0.0323307 -0.306947 3.11491 0.0737186 -0.858141 -0.508094 
-0.0272776 -0.316068 3.22312 -0.0212819 -0.919032 -0.393609 
0.722337 -0.530343 2.35478 -0.082738 -0.923291 -0.375083 
0.743612 -0.135842 2.26238 -0.848518 0.39246 -0.354955 
0.767802 -0.19957 2.29511 -0.455812 0.00619247 -0.890054 
-0.854987 0.842404 -1.16101 0.288679 -0.937221 0.195657 
-1.58614 -0.202153 2.69398 0.655392 0.228304 -0.719957 
0.986537 -1.13739 2.84532 -0.224482 -0.665621 -0.711728 
-0.887206 -0.129703 2.66314 0.0851671 -0.91464 -0.395195 
0.979968 -1.07581 2.76293 0.248868 0.957229 0.147572 
-0.924418 0.760352 -0.994689 0.883811 -0.411691 -0.222235 
-0.337181 0.817552 -0.940462 0.0311846 -0.938295 -0.344428 
-0.629469 -0.358198 3.01733 0.606532 0.792419 -0.0647336 
-0.581027 -1.28323 3.30547 -0.151009 -0.977634 -0.146384 
-0.320939 -1.0614 3.43253 0.208286 -0.224784 -0.951887 
0.823685 -0.265536 2.20469 -0.704401 0.656188 -0.270623 
-0.0186949 0.375822 1.19362 0.0500471 -0.910636 -0.410168 
0.314756 -0.595461 2.64968 -0.530928 -0.257393 -0.807381 
0.883205 -0.473497 2.21571 -0.13786 -0.949094 -0.283225 
0.736004 0.27009 1.69663 -0.0188509 -0.885219 -0.464792 
1.98742 0.321755 1.59865 0.103828 -0.994036 0.0333541 
0.928083 -0.113303 2.15487 -0.492263 0.736012 -0.464719 
0.666302 0.770042 0.324453 0.00750813 -0.857774 -0.513972 
0.293691 -0.654258 2.67291 -0.200721 -0.776943 -0.596716 
-1.13657 -0.638747 2.9487 -0.184568 0.943605 0.274854 
-0.43577 0.927877 -1.30316 -0.18791 -0.707455 0.68132 
1.26995 0.0967101 0.110001 -0.197954 -0.692964 0.693264 
0.951211 0.470966 0.688626 0.455817 -0.76671 -0.452091 
1.08458 -0.78023 2.52271 -0.990451 0.129621 0.0469625 
1.03013 0.698773 0.549603 0.115988 -0.966089 -0.230692 
-1.14232 -0.150515 2.74254 0.541667 0.83486 -0.0980124 
1.02915 0.293495 -0.249536 -0.955935 -0.0269392 -0.29234 
1.67662 0.290264 1.66167 -0.217997 -0.884453 -0.412578 
1.07992 -0.730058 2.51888 -0.864086 -0.33297 -0.377473 
0.572037 0.471922 1.1846 0.0534327 -0.885427 -0.461697 
2.1942 0.321068 1.60928 -0.133302 -0.977411 -0.16401 
0.871975 0.217592 1.84882 0.060447 -0.968167 -0.242896 
-0.209481 -0.729131 3.47339 0.827555 -0.128978 -0.546368 
-1.48863 0.122579 2.0441 -0.26561 -0.711561 -0.650487 
1.21907 -1.06963 2.64524 -0.0663052 -0.847014 -0.527419 
1.1838 -1.02922 2.55625 -0.0838693 -0.845366 -0.527563 
-1.38659 0.0558476 2.12342 0.0421624 -0.997911 -0.0489441 
0.178882 -0.118519 2.6657 -0.00770813 -0.921917 -0.387311 
1.22975 0.296999 0.208927 0.0279607 -0.898729 -0.437613 
1.47391 -0.574121 2.08492 -0.303074 0.0745482 -0.950047 
-0.0794106 0.849985 0.0517642 0.0035111 -0.923556 -0.383448 
0.177204 0.313085 1.36994 0.118954 -0.926189 -0.357804 
1.1406 -0.51969 2.36333 -0.242804 -0.796774 -0.55335 
-1.84072 -0.0797761 0.919615 0.316369 -0.918998 0.235273 
1.66723 -0.54464 1.80064 -0.823263 -0.286262 0.490197 
1.12889 -0.122107 1.9087 -0.887754 0.275413 -0.368836 
-0.185597 0.123467 2.06602 -0.0358949 -0.935643 -0.351119 
1.17481 0.0311649 2.36908 -0.296656 -0.95149 -0.0816213 
-0.619909 0.987619 -0.266974 0.162804 -0.917261 -0.363493 
1.16183 0.332257 0.818608 -0.919439 -0.323485 0.223584 
1.23658 -0.865164 2.3571 -0.486232 -0.722926 -0.490873 
-0.381092 0.813706 0.120285 0.00878134 -0.820701 -0.57129 
0.862852 0.314568 1.58883 -0.017483 -0.92109 -0.388957 
-2.00399 -0.34226 1.6611 0.0972669 -0.994998 0.0227828 
-0.487065 -0.0663361 1.24487 -0.17913 0.653839 -0.735124 
0.627586 0.497165 1.05553 -0.0556706 -0.960431 -0.272897 
1.12741 0.132979 2.00907 -0.0475752 -0.920178 -0.388599 
-0.0694265 -0.307878 3.12435 0.253716 -0.895186 -0.366429 
0.817866 0.345984 1.46719 0.0550995 -0.933041 -0.355525 
-0.58041 0.123299 2.05864 -0.091157 -0.900284 -0.425652 
-0.685768 0.852813 -1.17696 -0.6884 -0.109874 0.716961 
1.48387 -0.62652 2.11044 -0.659451 -0.66486 -0.350835 
0.323503 -0.1136 2.66068 -0.14914 -0.89917 -0.4114 
0.729908 0.439268 1.26105 -0.0339005 -0.9445 -0.326758 
1.30429 -0.921444 2.35791 -0.672616 -0.410062 -0.615984 
-0.444922 0.997099 -0.500545 0.900987 -0.423262 -0.0952479 
-1.5978 0.0782832 2.15382 -0.0844646 -0.930812 -0.355605 
0.396162 -0.394708 2.52562 -0.70333 0.530238 -0.47347 
1.11224 0.638727 0.710226 0.0584325 -0.924509 -0.376656 
1.50389 0.074734 0.806431 0.187752 -0.955585 -0.227172 
0.206498 0.479522 -0.138186 -0.878663 -0.0566865 0.474066 
1.42861 0.413427 1.26482 -0.0265729 -0.958064 -0.285318 
1.18422 0.126333 2.07187 -0.00264542 -0.934415 -0.356176 
1.07234 0.177644 1.90544 0.0288682 -0.947309 -0.319018 
-1.06982 -0.276321 2.70867 0.0998883 -0.504584 -0.857565 
-0.552917 -0.398783 3.0672 0.201151 0.966941 0.156726 
-0.194008 0.998057 -1.13985 0.905438 0.293529 -0.306632 
-1.37095 -1.07029 2.76762 -0.358225 0.695816 -0.622507 
-0.432414 0.954059 -0.547857 -0.0795042 -0.463322 0.882617 
-1.78701 0.0344691 1.76002 0.810226 -0.58449 -0.0436459 
1.37171 0.0952653 1.80419 -0.635667 0.141167 -0.758946 
-0.181141 1.14297 -0.840768 0.738554 -0.631409 -0.236349 
-1.79239 0.258481 1.55791 0.056053 -0.920573 -0.386527 
0.350414 -0.555671 2.53443 -0.823691 -0.341132 -0.452948 
-1.37015 -1.03473 2.72722 -0.0922039 -0.802873 -0.588976 
-1.44186 -0.82553 2.96241 -0.810754 0.133199 -0.570032 
0.790184 0.470399 -0.254458 -0.207695 -0.942855 -0.260552 
-1.23921 -0.100182 2.52836 0.0912608 -0.852022 -0.51549 
1.33417 0.392929 1.31365 0.004706 -0.922913 -0.384979 
1.34222 0.224299 1.80854 -0.0517328 -0.944508 -0.324389 
1.57604 0.395296 1.30545 0.0764341 -0.958305 -0.275337 
-1.28311 -0.123459 2.60425 -0.403001 -0.777644 -0.482557 
-0.217384 -0.472241 3.48309 0.0632578 0.990033 -0.125832 
-0.781256 0.292424 1.56532 0.0685267 -0.94455 -0.321138 
1.67495 -0.291734 1.89255 0.617237 0.733059 -0.285732 
0.829544 0.843672 0.165741 -0.172411 -0.954477 -0.243407 
1.03487 0.288022 0.198461 -0.104848 -0.907449 -0.406869 
-1.38045 -1.03803 2.78796 0.562655 0.474991 -0.676612 
-1.36837 -0.930677 2.76461 -0.226186 -0.159584 -0.960923 
-0.410909 0.804786 -0.955644 -0.258732 -0.839481 -0.477838 
1.13429 0.29583 0.101073 -0.111254 -0.514957 0.849966 
-1.1769 0.0907656 2.06043 0.087349 -0.952885 -0.290484 
-1.35106 -1.07069 2.76611 -0.466803 0.591342 -0.657579 
0.273715 -0.0672543 1.40986 -0.00858846 -0.939331 -0.342905 
-1.33892 -0.944111 2.74267 -0.337692 -0.57434 -0.74572 
-1.03876 -0.932839 2.86781 0.712808 -0.0614679 -0.698661 
0.987808 0.413801 1.26787 0.0183347 -0.93986 -0.341067 
-0.381592 0.904852 0.00226771 0.168376 -0.800719 -0.57489 
-1.38741 -0.835729 2.84711 -0.825777 0.290246 -0.483581 
-0.125268 -0.218371 2.97216 -0.0364437 -0.915208 -0.401331 
-1.30164 -1.06367 2.74223 -0.729951 0.10734 -0.675019 
-1.80087 0.603938 0.00331187 0.259873 -0.359513 0.896223 
-1.61818 0.0311669 0.204056 0.227191 -0.723072 -0.652343 
-1.22381 -0.868844 2.80181 0.36455 0.428259 -0.82686 
1.35515 0.0263079 1.67468 -0.517725 -0.111782 -0.848213 
1.62812 -0.869651 2.20921 -0.286005 -0.42964 -0.856511 
-1.28705 -0.780942 2.71576 0.155351 0.542328 -0.825679 
-0.666872 -0.716633 2.71639 0.664584 0.736888 -0.123787 
0.623495 -0.121349 2.7198 -0.116535 -0.954927 -0.273008 
-1.33227 0.124207 -0.691962 0.670229 -0.40778 0.620088 
0.572858 0.536767 -0.445908 -0.157021 -0.941444 0.298374 
-1.13784 -0.423792 2.43436 0.310219 -0.0698274 -0.948097 
-1.17247 -0.369088 2.55156 0.659002 -0.223123 -0.718284 
0.0692106 -0.277685 3.06185 -0.10798 -0.962107 -0.250381 
-1.16703 -0.696951 2.77477 0.231895 0.170781 -0.957632 
0.12976 0.741808 0.358582 -0.0113141 -0.956109 -0.292791 
-1.18279 -0.628929 2.81245 0.426455 0.902438 0.0611647 
-1.08584 -0.264303 2.60915 0.81417 -0.516528 -0.265191 
1.54403 -0.683263 2.17196 0.35047 0.927877 -0.127339 
-1.1348 -0.928844 2.76053 0.237346 -0.069272 -0.968952 
-1.14747 -0.888458 2.76826 0.516602 0.0584122 -0.854231 
-1.18333 -0.718005 2.91427 0.824114 0.21098 -0.525665 
-1.70351 -0.128202 1.19958 0.670815 -0.0056488 -0.741603 
-1.17238 0.261376 1.61132 0.000233679 -0.934215 -0.35671 
-1.18372 -0.672882 2.92191 0.439627 0.272564 -0.855826 
1.57707 -0.480765 2.11848 -0.830264 0.315274 -0.459635 
1.53037 -0.114713 0.806774 -0.736948 -0.505077 0.449227 
1.38891 0.234386 0.354886 0.0573159 0.996856 0.0547117 
-1.04836 -0.268629 2.61522 0.51689 -0.181274 -0.836639 
-1.0733 -0.985163 2.81349 0.604812 -0.290603 -0.741453 
-1.67917 -0.173847 1.12729 0.287167 -0.770736 -0.568772 
-1.03701 -1.07993 2.81055 -0.702836 -0.295539 -0.647053 
0.936935 -0.375594 2.11178 -0.207418 -0.213467 -0.954678 
1.67347 0.438716 1.21536 0.0476359 -0.950101 -0.308284 
-1.06952 -0.72686 3.01716 0.916944 0.274169 -0.289905 
-1.78751 -0.112082 -0.297661 0.547026 0.63194 0.549012 
-0.928654 -0.937265 3.01138 -0.576747 -0.515948 -0.633372 
-1.52411 0.0936893 0.579429 0.899466 -0.0469354 0.434463 
1.24419 -0.130533 1.72217 -0.440637 0.341555 -0.830168 
-1.0225 -0.676099 2.96934 0.955693 0.178785 -0.233853 
1.48029 0.244437 1.10928 -0.219534 0.381137 -0.898076 
-0.978881 -1.04433 2.86184 0.753499 0.0818187 -0.652338 
-0.137334 1.14901 -0.835852 0.256462 -0.849519 -0.461025 
-1.1276 0.284885 -0.0320149 0.0994017 -0.541943 0.834516 
-1.99522 -0.145891 0.818832 -0.272389 -0.792732 -0.545326 
-1.03326 -0.67387 3.0541 0.405998 0.356619 -0.841421 
1.47204 0.347819 1.12568 0.61483 -0.0973539 -0.782628 
-0.910476 -0.564968 2.74254 0.867688 0.0204197 -0.496689 
-0.832231 0.209433 1.77081 -0.00646615 -0.920297 -0.391167 
-0.980915 -0.827037 3.05607 0.723653 -0.0300848 -0.689508 
-1.74316 0.0814895 1.10787 0.22948 -0.823771 -0.518402 
1.55317 -0.31636 1.85284 0.461118 -0.0881493 -0.88295 
-0.332772 -0.151499 2.72485 0.0256138 -0.888458 -0.458244 
1.31647 0.239742 0.906771 -0.770189 -0.0973174 0.630347 
1.60069 0.184437 1.85389 -0.0947469 -0.973774 -0.206849 
-0.976454 -0.770464 3.05867 -0.557184 0.528265 -0.640689 
1.09863 -0.582478 2.62766 0.0786291 -0.99493 -0.0627086 
1.88653 0.195487 1.85977 -0.0112998 -0.828239 -0.560261 
-2.1336 -0.725087 1.89348 0.432791 0.870057 -0.235993 
-0.980301 -0.72529 3.09737 0.740288 0.329082 -0.586242 
-0.892853 -0.429717 2.65466 0.71718 0.544071 -0.435476 
1.3811 -0.990838 2.45899 -0.172407 -0.86631 -0.46881 
-1.52792 -1.08628 2.55743 0.508 -0.25504 -0.822734 
-0.227929 0.816765 -0.812551 0.514134 -0.544482 0.662725 
1.47885 0.446263 1.15145 -0.114645 -0.953427 0.278987 
-1.02969 -0.646537 2.93944 -0.176104 -0.840038 -0.513151 
-1.93519 -0.217635 0.913584 0.833895 -0.242294 0.495896 
-0.0769996 -0.230511 2.96703 -0.122536 -0.935695 -0.330848 
-0.934214 -1.03057 3.01294 -0.0612576 -0.342089 -0.937669 
0.627757 0.534203 -0.438073 -0.262558 -0.957651 0.118185 
1.16745 -0.517298 2.35723 -0.0892173 -0.905901 -0.413986 
-0.981144 -0.770745 3.09835 0.630001 -0.00820382 -0.776551 
-0.488087 0.974964 -0.336835 -0.149789 -0.930022 -0.335593 
-0.926885 -0.980318 3.00369 -0.814182 0.565019 -0.133643 
-0.530213 0.0870659 2.19407 0.0586801 -0.952981 -0.297293 
-0.924499 -0.983534 3.05726 0.0876198 0.789897 0.606948 
1.23251 -0.356936 1.92686 -0.00313289 -0.888733 -0.458414 
-0.924902 -0.934753 3.05824 -0.54172 0.490317 -0.682736 
-0.960163 -0.862113 3.09859 0.714638 0.10459 -0.691631 
-1.97435 0.302423 1.41581 0.130902 -0.928774 -0.346761 
-0.925463 -1.02718 3.0479 0.0463023 0.987308 0.151918 
-0.943613 -0.926496 3.10358 0.900272 0.276701 -0.336077 
-0.955002 -1.14166 2.87022 0.904644 0.19531 -0.378779 
-0.145456 -0.536562 3.48118 -0.0436518 -0.0837385 -0.995531 
-0.632346 0.754669 -0.439539 0.268057 -0.368195 0.890268 
2.38286 0.183513 1.85534 -0.0407419 -0.955379 -0.292561 
-0.978349 -0.876625 2.91007 0.848827 0.074216 -0.523435 
-0.37761 0.1394 2.01008 0.00403161 -0.93391 -0.357485 
-0.880146 -1.07727 2.95816 0.540359 -0.103303 -0.835069 
1.08003 0.293496 0.0487811 -0.86973 -0.252357 0.42413 
-0.384168 0.579643 0.838697 0.0333024 -0.947447 -0.318176 
-0.887525 -1.03578 3.0129 -0.383595 -0.805143 -0.452328 
-0.711003 0.898637 -0.240435 0.176148 -0.870689 0.459209 
1.13496 0.235783 1.75877 -0.129549 -0.899611 -0.417034 
0.827619 0.703442 0.516572 -0.106778 -0.954688 -0.277792 
0.169868 0.189074 1.91236 -0.41988 0.850759 -0.316084 
-0.861863 -0.303828 2.93098 0.763068 0.455093 0.45893 
-0.893863 0.413607 1.22517 0.0209474 -0.931618 -0.362835 
-1.56761 -0.432165 1.9504 -0.196449 0.978544 -0.0621222 
-0.884 -0.92152 3.06127 0.0823799 -0.439706 -0.894356 
-0.877083 -0.938181 3.10945 -0.332954 0.766373 -0.549375 
-2.29466 -0.121224 0.949866 0.0854833 0.994873 0.0540458 
1.3685 0.208527 0.981134 -0.234005 0.96653 -0.105178 
2.30713 0.234252 1.75771 -0.0636461 -0.904428 -0.421852 
0.237702 -0.139941 2.74756 -0.0293378 -0.997325 -0.0669533 
1.1381 -0.320839 1.86224 -0.538299 -0.63272 -0.556686 
-0.862272 -0.329495 3.0265 -0.278965 0.944073 -0.175797 
-0.826603 -0.270306 2.96523 -0.520847 0.850382 -0.0746199 
1.1739 0.150706 1.95441 0.0111303 -0.912675 -0.408534 
1.70738 -0.0325985 0.3196 -0.735742 -0.662788 0.139266 
0.810902 -0.696785 2.86603 0.134167 0.980446 0.143966 
0.0172107 0.918575 -0.172942 -0.145144 -0.919441 -0.365462 
-0.832348 -1.12659 3.00872 -0.487462 0.704872 -0.515302 
-1.48148 0.510617 0.915753 -0.0413817 -0.946399 -0.320337 
-1.71954 0.249672 1.15609 0.989373 0.0666895 0.129206 
-0.721834 -0.679355 2.6902 0.592864 0.504039 -0.628058 
-0.818118 0.79807 -0.99506 0.653203 -0.462737 0.599333 
1.78562 -0.696455 2.01289 -0.0047382 -0.741609 -0.670815 
-0.787015 -0.279011 3.01605 0.295713 -0.532829 -0.792873 
-0.784826 -1.23454 3.06681 -0.0549755 0.9866 -0.153618 
-1.735 -0.0698286 0.958183 -0.0549861 0.960942 -0.271231 
-0.827557 -1.18172 3.09107 0.0245888 -0.0188317 -0.99952 
-1.64704 0.0857296 1.17056 0.977991 0.15154 0.143422 
-0.376952 -0.159597 1.60877 0.0369504 -0.946113 -0.321721 
1.1372 0.291716 0.80938 -0.877435 -0.0746597 0.473851 
-0.934783 0.784919 0.24311 0.00228346 -0.943284 -0.33198 
-0.277103 -0.169005 1.6609 -0.0190911 -0.947359 -0.319605 
-1.57927 0.295126 0.360115 0.995507 -0.087857 -0.0353109 
2.43015 0.468045 1.21791 -0.0517863 -0.938623 -0.341034 
-0.216523 -0.200838 1.36577 -0.028153 -0.976757 -0.212491 
-1.8834 -0.172678 1.16733 0.0379631 0.969158 0.243499 
-0.434927 -0.825044 2.96331 0.0335855 -0.746341 -0.664716 
1.63218 0.548151 0.951863 0.167127 -0.940692 -0.29524 
0.328859 -0.219212 2.91254 0.0695468 -0.858638 -0.507843 
-0.371238 -0.621297 2.96246 0.758606 0.570092 -0.315456 
-0.381268 -0.675141 2.97427 0.700182 0.139937 -0.700116 
1.35551 0.171888 0.336186 -0.407615 -0.595469 0.692291 
-1.54353 0.539856 0.868487 0.0497292 -0.825487 -0.562227 
-0.377242 -0.572343 2.96511 0.620794 -0.494859 -0.608054 
-0.177904 -0.202124 1.36641 -0.322544 0.932196 0.164241 
-0.368546 -0.616695 3.00997 0.869084 0.02182 -0.494182 
-1.99037 -0.270791 1.20051 0.252548 0.942978 0.216824 
-0.332983 -0.708981 2.92251 0.290859 0.323702 -0.900343 
-0.125751 0.0217801 1.15848 0.00386712 -0.916876 -0.399154 
1.4199 -0.000210593 1.70106 -0.768362 0.0196649 -0.639713 
-0.163663 0.0511299 2.17293 -0.0383558 -0.940475 -0.337693 
-0.337547 -0.836936 3.01527 0.408577 -0.368218 -0.835153 
-0.578756 -0.223583 2.91367 -0.155971 -0.818908 -0.552325 
0.130018 0.793428 0.207991 0.0856862 -0.95973 -0.267539 
-2.1842 -0.518042 1.56415 0.524789 0.333261 0.783284 
-0.273339 -0.833148 3.03121 0.151697 -0.924882 -0.348685 
-0.652953 -0.230828 2.99401 -0.15616 -0.941623 -0.298263 
-1.77932 -0.158314 2.54036 0.759246 -0.478211 -0.44143 
-0.282528 -0.825944 2.96652 0.557939 -0.662714 -0.499514 
-0.177552 -0.182281 1.70557 0.0422689 -0.917652 -0.395131 
-0.478889 1.00458 -0.344173 -0.0298313 -0.964762 -0.261426 
1.28152 0.482419 1.09827 -0.000692026 -0.961781 -0.27382 
-0.120576 -0.145912 1.57285 0.0125382 -0.941686 -0.33626 
0.0221965 -0.220023 1.71288 -0.355408 0.762629 -0.540446 
0.0719959 -0.555937 2.95236 -0.922881 0.188377 -0.335865 
0.563836 0.526139 1.01599 -0.00954026 -0.903512 -0.428457 
1.98997 0.283304 1.71265 -0.328726 -0.871713 -0.363394 
0.327691 1.12624 -0.741949 -0.0919699 -0.934134 -0.344871 
0.0230889 -0.221704 1.66143 -0.596423 -0.381403 -0.706266 
0.0186056 -0.281398 3.14403 0.0840039 -0.887041 -0.453985 
0.126481 -0.560893 2.86493 -0.370713 0.742937 -0.55733 
-1.78483 0.651723 0.513683 -0.0772923 -0.993341 0.0854363 
0.954438 -0.100674 2.1475 -0.584742 0.650595 -0.484565 
0.263655 -0.288703 2.65397 0.269342 -0.921938 -0.278361 
-1.48212 -0.174635 1.90808 0.782004 0.313594 -0.538637 
0.722017 -0.108289 2.68139 0.0595673 -0.940665 -0.334068 
-0.0329906 -0.00444613 2.3646 -0.0299295 -0.912002 -0.409093 
0.339367 -0.703905 2.95008 0.505286 -0.610295 -0.610103 
0.372713 -0.926833 2.97219 0.623156 0.568223 -0.537401 
-0.245044 0.968843 -0.717466 0.644224 -0.231538 0.728948 
1.3034 0.315793 1.03709 0.388042 -0.226636 -0.893342 
0.426481 -0.780858 3.01467 0.651659 0.548946 -0.523449 
1.27399 0.466538 1.11102 0.134568 -0.950729 -0.279296 
-0.732398 -1.19122 3.11695 -0.207682 0.897432 0.38921 
2.46706 0.367555 1.47148 0.296077 -0.78484 -0.544394 
0.444079 -0.986095 2.86872 0.697181 0.652855 -0.296173 
0.478003 -0.941723 3.00449 0.520467 0.193294 -0.831716 
0.489194 -0.734478 2.94574 0.105017 -0.971105 -0.214303 
0.281148 -0.0961655 1.46454 0.090694 -0.927437 -0.362817 
-0.125761 0.533708 0.800239 -0.341859 -0.632101 -0.695399 
0.931467 -0.0133071 2.45842 -0.0214466 -0.944594 -0.32754 
0.483135 -0.225816 2.55001 -0.333529 0.942687 0.0099998 
0.317968 -0.15393 1.61791 0.535822 -0.828138 -0.164566 
-1.74161 -0.104925 0.419717 0.421528 0.698803 -0.577918 
-0.0690209 -0.250443 2.98124 -0.001735 -0.905605 -0.424119 
0.325958 -0.122434 1.55948 0.305089 -0.946849 -0.101964 
-1.67742 0.431817 1.20945 -0.0304441 -0.997803 -0.0588436 
0.672499 -1.0465 2.96864 -0.887464 -0.0701672 -0.455504 
0.576143 -0.221293 2.45637 -0.79461 -0.39662 -0.459661 
0.870813 0.448122 0.563776 0.451743 0.267548 -0.851085 
-0.975155 -0.626606 3.11528 0.819476 0.481021 -0.311572 
-0.409077 -0.284569 3.14032 0.0772337 -0.933366 -0.350517 
-0.737557 0.698995 0.455884 0.0255049 -0.949363 -0.313145 
1.47832 -0.606229 2.06239 -0.483359 -0.368775 -0.793958 
0.712126 -1.16869 2.97701 0.0132166 -0.372255 -0.928036 
0.552736 0.572208 0.280764 0.197855 0.0800942 -0.976954 
0.735215 -1.14642 2.9748 -0.155314 -0.434224 -0.887315 
0.583705 -0.341211 2.33553 -0.53296 0.258374 -0.805727 
0.293545 -0.103609 1.12064 0.230061 -0.722699 -0.65175 
-1.1741 -0.0484585 2.41495 0.17048 -0.935434 -0.309677 
-1.21405 0.717683 0.255836 -0.681623 -0.516633 0.518151 
0.326007 -0.026424 1.30061 0.0807204 -0.97532 -0.205512 
0.659002 -0.557884 2.43291 0.134607 -0.938703 -0.31736 
0.162634 0.850011 0.102756 0.103309 -0.948572 -0.29923 
0.808335 -1.10719 2.91298 -0.890147 -0.0893824 -0.446822 
0.825504 -0.717831 2.80122 0.100009 -0.236302 -0.966519 
0.290523 -0.0821433 2.6198 -0.0918509 -0.918864 -0.383734 
0.82717 -0.925947 2.81413 -0.110986 0.154579 -0.981727 
-0.890882 -0.978748 3.01404 -0.785453 -0.301029 -0.540781 
0.878278 -0.883468 2.76195 -0.578775 -0.369422 -0.727013 
-0.636086 -0.167303 2.75925 0.131477 -0.952422 -0.274967 
-0.917073 0.661595 0.522847 0.0155834 -0.952011 -0.305665 
0.764605 -0.254602 2.29559 -0.344851 0.347729 -0.871873 
1.72696 0.536358 1.01277 0.115158 -0.930872 -0.346721 
1.35686 0.517455 0.967992 -0.0587101 -0.923825 -0.378286 
0.403366 -0.74165 2.95303 0.808199 0.404261 -0.428238 
1.03847 -0.89271 2.70474 -0.594535 -0.567796 -0.569329 
-1.91461 -0.0105528 -0.0955455 0.891501 0.421917 -0.164959 
0.941022 -0.555531 2.46529 0.171204 -0.870496 -0.461439 
0.841612 0.275274 -0.457982 0.0029518 -0.985169 0.171563 
-0.531806 0.906886 -0.448435 -0.0553974 -0.99812 -0.026211 
-1.87179 -0.0787819 0.693154 0.194421 -0.00600064 0.9809 
-1.91782 -0.316826 0.91351 0.890297 0.399841 -0.217942 
-1.48543 -0.133274 2.75324 -0.0637079 -0.94997 -0.305774 
0.732322 0.237864 0.30747 -0.150036 -0.982789 -0.10777 
0.475751 -0.0414655 1.34912 0.0188174 -0.917593 -0.397075 
-1.47898 0.242916 1.61772 -0.0134309 -0.935266 -0.353692 
1.01969 -0.672914 2.60478 -0.908736 -0.353057 -0.222598 
0.625266 0.845467 0.153576 -0.0136842 -0.939849 -0.341317 
0.985237 -0.564955 2.51518 0.0427123 -0.969989 -0.239369 
1.54274 0.0241262 0.760823 -0.939606 -0.321406 0.117637 
-1.33419 0.107897 -0.707118 0.670229 -0.40778 0.620087 
-0.5165 0.0589643 2.14883 -0.0337672 -0.952255 -0.30343 
-0.201789 0.826492 -0.832331 0.897975 -0.135438 0.418685 
0.859026 -0.221314 2.20705 -0.895636 0.249497 -0.368221 
0.0208053 0.758959 0.312639 -0.0629639 -0.924475 -0.376006 
0.530883 -0.0385006 1.35052 0.00436833 -0.852389 -0.52289 
-1.63332 0.0356342 0.706545 0.0763673 -0.894797 -0.439894 
-0.524552 0.975841 -0.346221 0.143949 -0.987773 0.0598577 
1.0181 -1.03778 2.59302 -0.402546 -0.652692 -0.641833 
0.874985 -0.0812471 2.16364 -0.49831 0.866067 0.0401897 
1.13671 -0.623121 2.51355 -0.659472 -0.504264 -0.557508 
0.570554 0.942311 -0.20142 -0.237416 -0.958166 -0.15985 
-2.32855 -0.0678564 0.960908 0.192854 -0.971892 -0.135032 
0.344451 -0.642752 2.70207 0.0711044 -0.929586 -0.361682 
-0.826756 -0.420158 2.71658 0.230835 -0.016897 -0.972846 
0.774339 0.203357 -0.489426 -0.207093 -0.977748 0.0334934 
-1.74412 0.0820921 0.956648 0.844153 -0.206436 0.494762 
-1.53928 0.0989005 1.98488 -0.254734 -0.906568 -0.33652 
0.920344 -0.218894 2.14318 -0.553845 0.231412 -0.799815 
0.0113538 1.15944 -1.00326 0.824424 -0.327683 0.461465 
1.13441 0.19018 0.805662 -0.932707 -0.0883387 0.349647 
0.834183 0.214302 1.84318 0.0531266 -0.961125 -0.270953 
1.14743 -0.994218 2.46124 -0.371514 -0.651984 -0.66098 
1.17036 -0.986585 2.475 -0.163438 -0.970514 -0.177172 
-2.01738 0.132115 2.06837 -0.0117579 -0.999862 0.0117201 
1.13895 -0.830713 2.42366 -0.372396 0.190743 -0.908261 
0.222637 -0.100319 2.61196 -0.00333265 -0.923534 -0.383502 
1.08308 -0.485323 2.27123 0.0213439 -0.956957 -0.289444 
-1.58656 -0.365497 1.77462 0.418717 0.0558949 -0.906395 
1.01905 -0.0450353 2.08723 -0.443476 0.895297 -0.0420988 
1.21808 0.0117179 2.43828 -0.277958 -0.876068 -0.39401 
0.533804 0.334982 -0.489203 0.182061 -0.866136 0.465469 
1.06678 0.102811 -0.0924449 -0.539981 -0.804543 0.247248 
1.21122 0.117722 0.774654 -0.622176 -0.779652 -0.0709905 
-1.94735 0.102269 1.94754 -0.0343364 -0.980584 -0.193071 
1.48626 -0.875526 2.21997 -0.466725 -0.304463 -0.830343 
1.5354 -0.434968 2.21859 -0.00764087 -0.950072 -0.311937 
1.22412 -1.02622 2.5469 -0.0670041 -0.810145 -0.582388 
-1.68549 0.166348 1.44297 -0.138971 -0.900371 -0.412333 
-1.08182 -0.639203 2.95721 0.106693 -0.9663 -0.234268 
-0.125225 -1.41425 3.62124 0.153347 -0.786366 -0.598426 
1.14019 -0.475742 2.26933 0.121038 -0.935372 -0.332309 
1.26643 -1.01649 2.54511 -0.0287798 -0.80908 -0.586993 
1.18769 -0.492534 2.305 0.0934763 -0.812487 -0.575436 
1.12642 0.540349 0.96603 -0.0485682 -0.915496 -0.399385 
-1.78579 -0.176641 1.20582 0.0914376 -0.989684 -0.110293 
1.00291 -0.354796 1.98004 -0.0726084 -0.66786 -0.740737 
-1.8447 0.337217 -0.0556716 0.28036 0.638436 0.716797 
1.42892 0.132875 0.314327 -0.550588 -0.179931 -0.815155 
-0.169011 0.708474 0.460624 0.0318635 -0.945466 -0.324159 
1.32497 -0.983963 2.50096 -0.228562 -0.820812 -0.523476 
1.2831 -0.524538 2.40989 -0.276848 -0.767135 -0.578671 
1.11069 0.117535 2.0905 0.0168781 -0.957168 -0.289042 
-1.56816 -1.10677 2.55656 0.531721 0.661005 -0.529477 
1.38113 -0.0611113 1.62296 -0.413858 0.193351 -0.889571 
1.22661 -0.46912 2.26574 0.134801 -0.819194 -0.557449 
1.31437 -0.420217 1.488 -0.878266 0.351379 -0.324317 
1.04342 -0.325305 1.92577 -0.609908 -0.178804 -0.772037 
-0.258947 1.02853 -0.358817 0.066369 -0.410649 -0.909375 
1.07979 -0.271556 1.91241 -0.793668 0.0342568 -0.607386 
-0.543977 0.745334 -0.500756 0.904815 -0.349306 0.243507 
-0.322577 -0.440095 3.27317 0.50292 0.862418 0.0574982 
1.07728 -0.219213 1.90995 -0.721011 -0.235515 -0.651671 
1.42696 -0.736615 2.36039 0.152532 0.0756612 -0.985398 
-0.383041 -0.134397 1.70067 0.426666 0.891339 -0.153202 
1.23549 0.0868343 2.15789 0.135798 -0.948558 -0.286 
-0.0849726 0.487425 0.720624 0.00378899 -0.521458 0.853268 
1.03544 0.209068 1.81729 -0.0618067 -0.914715 -0.399345 
0.982657 0.252419 1.71419 0.00518422 -0.994392 -0.105626 
0.379923 -0.0411494 1.34649 0.00202246 -0.905049 -0.425303 
1.93078 0.396073 1.35827 -0.103848 -0.896962 -0.429739 
1.32695 -0.572585 2.36048 0.0162501 0.500236 -0.865736 
1.57505 -0.513208 2.1014 -0.425404 -0.223115 -0.877069 
1.07925 -0.172848 1.90979 -0.628896 0.196809 -0.752168 
1.1293 0.346139 1.51218 0.0976465 -0.913675 -0.394543 
1.13076 -0.0175411 1.96274 -0.0422684 -0.518897 -0.853791 
-1.26432 0.478812 0.175874 0.876934 -0.220216 0.42719 
1.02806 0.428959 1.24875 -0.0432962 -0.956304 -0.28915 
-1.46229 0.0124705 2.30742 0.0397125 -0.991757 -0.121825 
-1.92901 -0.0306389 0.752695 0.131123 -0.884938 -0.44687 
-1.63714 0.376104 0.911617 0.112459 -0.923212 -0.367467 
1.33365 -0.779013 2.32083 -0.455244 -0.242691 -0.856653 
-1.22904 0.166118 -0.834848 0.639845 -0.423002 0.641614 
1.13137 -0.383374 2.00778 -0.199385 -0.906041 -0.373277 
0.756655 0.314482 0.42685 -0.556275 -0.530361 0.639746 
1.32897 0.0364707 2.31339 -0.0616082 -0.78667 -0.614292 
-1.46808 0.5566 0.796765 0.0122871 -0.96939 -0.245219 
2.05358 0.345583 1.457 -0.257507 -0.966261 -0.00552882 
0.167322 -0.471796 3.52428 0.060697 -0.862166 -0.502976 
0.774801 0.425007 -0.154277 -0.00544279 -0.928259 -0.371896 
1.23045 0.24043 0.156343 -0.793911 0.368445 0.483689 
1.12406 0.152894 1.96812 -0.0236658 -0.908945 -0.416244 
1.02646 0.26866 -0.338347 0.210561 -0.91682 0.339271 
1.13623 0.163885 1.95797 -0.0302072 -0.911607 -0.409952 
1.13184 -0.37208 1.96759 -0.187711 -0.924526 -0.331688 
-1.11573 -0.259655 2.6887 0.455282 0.27861 -0.845632 
1.123 -0.168412 1.91274 -0.87521 0.329544 -0.35413 
-1.18561 0.0331525 -0.241988 0.836206 0.133779 0.531848 
1.27644 0.0835287 2.21502 -0.127318 -0.851734 -0.508271 
0.478147 -0.0574368 2.50648 0.073815 -0.938623 -0.336956 
1.38669 -0.674915 2.31904 -0.971772 0.0861437 0.21963 
0.313423 0.598964 0.0147202 -0.689692 -0.129469 0.712434 
1.2333 0.0975671 2.10954 0.0659772 -0.951836 -0.299426 
-1.98697 -0.0173221 1.11205 -0.139494 -0.560787 -0.816124 
1.17894 0.138838 2.01162 0.0693103 -0.941783 -0.329 
-1.53793 0.155021 1.86282 0.0994015 -0.976479 -0.191333 
-0.269702 -0.595434 3.40415 0.790097 0.14105 -0.596533 
1.0793 0.212972 1.83819 0.00094464 -0.913025 -0.407903 
1.3335 0.136786 0.964143 -0.385206 -0.652309 0.652771 
0.973642 0.280469 1.66214 0.0339225 -0.948769 -0.314145 
-1.78109 -0.126515 1.55277 0.961337 0.216051 -0.170741 
1.28021 -0.470863 2.29223 -0.210669 -0.807066 -0.5516 
1.33393 0.233025 1.0086 -0.649461 -0.437929 0.621625 
-1.44393 0.265832 1.62589 -0.0876205 -0.904784 -0.416759 
0.873165 0.350578 1.46449 0.0340552 -0.934064 -0.355479 
0.124775 0.739942 0.40444 0.0124974 -0.963188 -0.268538 
0.835061 0.365625 1.45092 0.092197 -0.949648 -0.299448 
0.728897 0.473322 1.15554 -0.0936418 -0.926146 -0.365356 
-2.004 -0.279769 1.25607 0.194557 0.977615 -0.0801102 
0.374377 -0.15895 2.75808 0.0853674 -0.927177 -0.364768 
0.78815 0.404697 1.31085 -0.00586427 -0.909365 -0.415957 
0.722901 0.446773 1.20694 -0.0687847 -0.963213 -0.259787 
-2.07592 0.29991 1.41404 -0.530627 -0.819008 -0.218312 
-1.73262 0.103087 0.656908 0.102886 -0.963373 -0.247644 
-0.231562 -0.272161 3.06171 -0.191794 -0.944134 -0.268004 
1.37686 -0.883841 2.36043 0.305827 -0.882629 -0.356982 
-0.933879 0.65146 0.569006 0.00556284 -0.948507 -0.316708 
1.33644 -0.836165 2.3219 -0.118439 0.216942 -0.968973 
-0.173759 -0.144506 1.57687 0.0300951 -0.915884 -0.400313 
-0.227965 -0.12192 2.70537 -0.0478286 -0.942723 -0.330129 
-0.407437 -0.729013 3.00403 0.711964 0.144543 -0.687179 
1.3864 -0.669051 2.35912 -0.492042 0.128626 -0.861017 
1.38514 -0.632631 2.35322 -0.38257 0.00403659 -0.923918 
1.39432 -0.57148 2.36496 -0.769338 -0.243285 -0.590704 
-0.927438 -0.686724 3.15783 0.0797351 -0.00657525 -0.996794 
0.606939 0.926415 -0.0645835 -0.148254 -0.967426 -0.205202 
1.22746 0.127982 2.04531 -0.00810935 -0.920367 -0.390971 
1.16791 0.561009 0.853346 0.073733 -0.910743 -0.406337 
-1.7296 0.036042 1.21103 0.343841 -0.251512 -0.904719 
-1.68196 0.0920779 1.35695 0.99527 0.0439674 -0.0866299 
1.12982 0.181311 1.90465 0.00914226 -0.947362 -0.320034 
0.125595 0.491307 -0.201824 0.0565783 0.0647895 0.996294 
0.0243 0.0379821 2.25734 0.0893829 -0.907756 -0.409865 
-1.83137 0.344637 -0.0866621 0.760832 0.265559 -0.592125 
-1.33958 0.561117 0.817079 0.124364 -0.939335 -0.319661 
1.3897 -0.776487 2.30955 -0.139471 -0.661023 -0.73729 
0.124371 -0.282087 3.10707 -0.00845538 -0.980716 -0.195255 
0.0252662 0.644326 0.667002 0.0297533 -0.949939 -0.311015 
1.08565 -0.275466 1.8745 -0.60771 -0.0950773 -0.788447 
1.08816 -0.230268 1.86964 -0.662205 0.0124132 -0.74922 
0.0269564 -0.147342 2.72573 -0.0211788 -0.855892 -0.516721 
2.43031 0.487794 1.15094 -0.0319421 -0.947899 -0.316966 
1.13497 -0.0118162 1.91651 -0.864523 0.0738743 0.497134 
0.924615 0.322015 1.55891 -0.0400271 -0.935176 -0.351913 
1.13855 -0.181441 1.82312 -0.391759 0.369634 -0.842553 
-0.237952 0.855721 -1.42231 0.0405128 -0.266249 0.963053 
1.52317 0.0401953 0.1102 -0.941738 -0.304506 -0.14285 
0.92959 0.336945 1.51003 -0.0356349 -0.933904 -0.355743 
1.38374 -0.963971 2.33406 -0.0772722 -0.996667 0.0261522 
1.1172 0.264634 -0.37804 -0.916548 -0.198702 -0.34707 
-1.58595 0.490426 0.552975 0.622114 0.782353 -0.0299875 
-1.59419 -0.0179082 2.18831 -0.706696 -0.137217 -0.694084 
1.37488 -0.674785 2.26824 -0.821297 -0.43636 -0.367507 
-1.54558 -0.0693974 0.456804 0.943511 0.081158 0.321249 
1.42198 -0.573281 2.37494 -0.958697 -0.162234 0.233624 
-0.628411 -0.228819 2.96599 -0.349077 -0.90095 -0.25775 
-2.06587 -0.170016 1.20744 -0.0114662 0.999737 0.019843 
1.33591 -0.516949 2.26794 -0.955634 0.0688694 -0.286392 
1.73221 -0.00971166 0.558986 -0.747161 0.342898 0.569361 
-0.728304 -0.236943 2.96586 0.141942 -0.973485 -0.179388 
-1.39288 0.652645 0.5072 -0.229441 -0.879133 -0.41771 
1.1312 -0.272417 1.86457 -0.505559 -0.438653 -0.742963 
1.38068 0.0253797 2.30731 0.00472077 -0.920839 -0.389915 
1.3409 0.0890024 2.1642 0.118052 -0.946563 -0.300138 
-1.03003 0.79899 0.156448 0.0397414 -0.990121 -0.134464 
1.08325 0.239137 1.76502 0.0384775 -0.932438 -0.359277 
0.21218 0.777758 -0.0759783 -0.882327 -0.195697 0.42802 
1.4623 -0.519859 2.1951 -0.491279 0.738984 -0.461028 
-0.114032 -0.231597 1.56317 -0.506855 -0.579245 -0.638415 
0.955572 0.316225 1.58796 -0.0231691 -0.930521 -0.365504 
-0.93767 0.772764 0.285006 -0.0653261 -0.933709 -0.352022 
0.873316 0.366718 1.4546 0.0218088 -0.910185 -0.413627 
0.88668 0.382428 1.40608 -0.027883 -0.947233 -0.319331 
0.73468 0.458144 1.1591 -0.0439068 -0.924977 -0.377477 
1.08859 0.333954 0.106563 -0.0404239 -0.901424 -0.431047 
1.34918 -0.292192 1.83983 0.0525536 -0.921169 -0.385598 
1.43198 -0.938437 2.34894 -0.218775 0.861551 0.458113 
-1.5036 -0.929465 2.48351 0.614734 0.788078 0.0321859 
0.0727627 0.898554 -0.0090843 0.0592388 -0.88827 -0.455487 
-1.04494 -1.29343 3.01091 -0.290862 -0.465728 -0.835761 
1.28254 0.0321477 1.80529 0.197144 0.375663 -0.905545 
-1.96081 0.187854 -0.0422029 0.942374 -0.0714039 0.326851 
-0.736086 0.804738 0.160145 -0.0221556 -0.95465 -0.296906 
1.43061 -0.87908 2.35949 -0.451609 -0.117803 -0.884405 
1.18251 -0.545013 2.49867 -0.00249084 -0.973367 -0.22924 
0.521314 0.869779 0.0203751 0.0473351 -0.935928 -0.348996 
1.23928 0.344784 1.51212 -0.0171378 -0.970356 -0.241074 
1.18962 -0.0654837 1.82866 -0.58845 0.166465 -0.791212 
1.42525 -0.829248 2.36239 -0.356114 -0.142103 -0.923574 
-1.52175 0.00995729 -0.548378 0.790644 0.2689 0.550068 
1.39498 0.021137 -0.171354 -0.431407 -0.896377 0.101962 
1.41985 -0.781705 2.34684 -0.989903 -0.0451201 -0.134374 
1.4132 -0.688772 2.31544 -0.0207532 -0.976431 -0.21483 
1.33218 -0.11322 1.70878 -0.594468 0.240449 -0.767328 
1.37595 -0.574592 2.25903 -0.80268 0.384294 0.456096 
1.32735 0.0827504 0.0571594 -0.225518 0.101278 0.96896 
-0.742537 -0.285771 2.79853 0.178833 0.97007 -0.164265 
0.676374 -0.212234 2.9252 0.0287721 -0.956386 -0.290686 
0.283094 1.2016 -0.938103 0.024978 -0.935135 -0.35341 
1.38557 -0.520419 2.25652 -0.897326 -0.187143 -0.399729 
-1.58758 -0.0279759 0.214068 0.275679 -0.455639 -0.846401 
-1.54362 -0.166111 1.80776 0.692475 0.142705 -0.707187 
1.33821 -0.457666 2.22055 0.0776837 -0.771414 -0.631574 
1.1604 0.437996 0.848979 0.470467 -0.50729 -0.722023 
1.17265 -0.064575 1.90265 -0.7501 0.094452 -0.654544 
1.17663 0.18003 1.9113 0.00754058 -0.933487 -0.358533 
1.13094 0.208079 1.8164 0.00608565 -0.910029 -0.4145 
-0.593972 -0.0422954 1.28355 -0.157475 -0.89963 -0.407269 
1.0683 0.244234 1.71742 0.0949519 -0.925445 -0.36679 
-1.20028 0.124763 1.98493 -0.0566418 -0.924074 -0.377993 
0.97824 0.306803 1.55561 -0.120408 -0.921884 -0.368281 
-1.58136 -0.88288 2.58782 0.663181 0.15473 -0.73229 
0.628535 0.437032 -0.489642 -0.83704 -0.162508 0.522452 
0.923903 0.480287 1.10151 -0.0325994 -0.944752 -0.32616 
1.44664 -0.929385 2.32312 -0.645326 0.503802 0.574228 
2.29485 0.386659 1.35454 0.160135 -0.960499 -0.227591 
1.73367 0.243701 1.80939 0.215264 -0.80706 -0.549832 
1.51314 -0.622926 2.14401 -0.396433 0.241972 -0.885602 
0.27548 -0.79718 2.89764 0.687045 0.233512 -0.688071 
0.763391 0.400897 -0.0991926 -0.000557764 -0.96064 -0.277796 
2.04171 0.259116 1.67487 0.135517 -0.986714 -0.0896171 
1.03432 0.343026 -0.0894837 -0.864525 0.360876 0.349806 
1.43075 -0.718547 2.31676 -0.306373 0.881464 -0.359383 
-1.82689 0.0409479 -0.202708 0.852008 0.523483 -0.00696348 
1.98511 0.433823 1.30982 -0.0258436 -0.984062 -0.175936 
-1.1752 -0.00456423 -0.280377 0.649854 0.0488494 0.758487 
-1.3332 0.645041 0.611371 -0.0502404 -0.976126 -0.211317 
-0.924505 -0.722043 3.14995 0.777435 0.282166 -0.562119 
1.33716 0.0949342 2.10786 0.0526976 -0.940422 -0.335902 
1.22047 0.167745 1.96504 -0.0113995 -0.92483 -0.380211 
-0.685746 -0.0285641 2.42465 0.01067 -0.916262 -0.400437 
1.12818 0.222457 1.81169 0.0123588 -0.938286 -0.345639 
-0.53016 -0.117914 1.51007 -0.269191 -0.934576 -0.232604 
-1.22633 -1.08538 2.81179 -0.69205 -0.209101 -0.690901 
-1.22698 -1.02644 2.811 -0.432221 -0.254213 -0.865194 
0.779062 0.239504 -0.39244 -0.491704 -0.530382 0.690596 
-1.22764 -0.967489 2.8102 0.562228 -0.313513 -0.765251 
1.51907 0.0515884 2.22669 0.333404 -0.942517 -0.0224355 
-1.22289 -0.629271 2.78494 -0.0781541 -0.0596172 -0.995157 
-0.166047 -0.0192385 2.46578 -0.0602511 -0.989784 -0.129216 
0.219891 0.485267 0.00348594 -0.551374 -0.14421 0.8217 
-1.64472 0.193037 1.16943 0.982981 0.0888768 0.160777 
0.12494 -0.520953 3.58833 0.0581666 -0.962485 -0.265027 
-1.18698 -1.12432 2.80686 -0.101656 -0.674261 -0.731463 
-1.03758 -0.519597 2.4843 0.335365 0.871592 0.357572 
1.79119 0.0799936 0.519521 -0.421734 -0.808861 0.409737 
-1.13891 -0.216564 2.60537 -0.575303 0.730792 0.367383 
0.569569 0.408229 -0.413506 -0.420997 -0.628741 0.653794 
-1.64823 0.0740177 1.10595 0.996022 -0.0446743 -0.0770955 
-1.09564 -0.172787 2.58022 0.630286 -0.308446 -0.712461 
-0.546017 -0.263744 2.96476 0.0101533 -0.952356 -0.304821 
-1.59811 0.081804 -0.122319 0.583443 0.449656 -0.676317 
0.374709 -0.0679252 1.41028 -0.0096813 -0.945966 -0.32412 
-1.09311 -0.186705 2.62089 0.898231 0.282791 -0.336468 
0.308955 -0.228793 3.0006 0.100588 -0.946982 -0.305134 
1.62536 0.0353312 0.413648 0.473471 -0.689846 0.547667 
1.38358 0.596923 0.764677 -0.388095 -0.79866 -0.459918 
-1.4335 0.233616 1.66215 0.00123526 -0.930791 -0.365549 
-0.480996 0.786766 0.206046 0.0662839 -0.96785 -0.242637 
-1.07452 -0.220873 2.66087 0.928488 0.334094 -0.162146 
-0.586655 0.656804 -0.541152 0.0521234 -0.957819 -0.282605 
1.58881 -0.00577454 0.465004 -0.786802 -0.612912 -0.072676 
2.03977 0.336479 1.55602 -0.0306195 -0.937136 -0.34762 
0.812693 -0.362565 2.18952 -0.79832 0.429117 -0.422545 
-1.83022 -0.0297413 1.12164 0.16781 -0.478613 -0.861841 
0.0332413 0.606645 0.746713 0.096629 -0.92837 -0.358876 
-1.03315 -0.21982 2.66232 0.682292 0.534295 -0.499005 
-1.03581 -0.983212 2.86346 0.764707 0.446887 -0.464237 
1.46362 -0.0362522 0.97627 -0.534453 -0.242613 0.809629 
1.24127 0.192427 0.940385 -0.736762 -0.0424128 0.674821 
-0.932531 -0.27121 2.7684 -0.164275 0.789762 -0.591007 
1.23355 0.449207 1.20373 -0.0154304 -0.942477 -0.333915 
-1.02366 -0.797968 3.05576 0.610609 0.379354 -0.69516 
1.222 -0.407835 2.1233 -0.0113245 -0.972443 -0.232865 
-0.932126 -0.981913 2.95489 0.867706 0.394604 -0.30228 
-0.372553 0.104276 2.0841 0.0126493 -0.917101 -0.398454 
1.53454 0.0848361 2.16084 -0.0705277 0.989569 -0.125617 
-0.98257 -0.679932 3.06525 0.584863 -0.391074 -0.710631 
-0.70287 0.903991 -0.239148 0.00473177 -0.910541 0.413392 
2.23303 0.543869 1.04369 -0.0144363 -0.940965 -0.338196 
-1.48774 -0.373496 2.10755 0.880446 0.426895 -0.206336 
-0.932266 -0.831887 3.07205 0.0867976 0.98321 0.160512 
-1.44138 -0.0613306 -0.0886362 0.48452 0.598702 -0.637806 
-0.825016 -0.619355 2.73295 0.263178 0.540844 -0.79889 
-1.53526 0.289312 0.307203 0.814213 -0.552668 0.177809 
-1.88394 0.180195 1.80652 -0.129529 -0.839124 -0.528292 
-0.928142 -0.255086 2.90851 0.378272 0.925498 0.0190636 
-1.68268 -0.115105 0.219826 0.737204 0.178632 -0.65163 
-0.929099 -0.773499 3.1168 0.66936 0.0514206 -0.741157 
-0.890019 -0.884653 3.0674 0.486713 -0.865916 -0.115324 
-0.380156 0.945121 -0.645788 0.634746 -0.555207 0.537441 
-0.936702 -0.626051 3.17312 0.233603 0.268614 -0.934492 
-0.690602 -0.2573 2.96327 0.782379 -0.558514 -0.275581 
1.67873 0.395821 1.30495 -0.051497 -0.98245 -0.179277 
1.06101 -0.676268 2.55306 -0.805463 0.126849 -0.578912 
-1.78482 -0.0620173 0.55231 0.890814 -0.146905 -0.429964 
-0.886408 -1.18298 3.06824 0.578916 -0.287566 -0.762996 
-1.68897 -0.209335 1.36132 0.851227 -0.300801 0.430036 
0.927628 -0.0954079 2.63334 0.0731048 -0.968715 -0.237164 
-1.09666 -1.23144 2.7545 0.352842 0.50047 -0.79059 
-0.871415 -1.09006 3.05063 -0.655784 -0.734755 0.173444 
-0.882819 -1.02933 3.0644 0.118216 0.978804 -0.167237 
-1.1476 0.311719 1.47085 0.0775571 -0.920123 -0.383872 
1.07728 -0.545602 2.51428 0.00146825 -0.972394 -0.23334 
1.33446 0.026537 2.36351 -0.167516 -0.782642 -0.599509 
-0.63162 -0.246874 2.92469 -0.062928 -0.757419 -0.64989 
-0.91902 -0.771695 3.1594 0.453046 0.244827 -0.85721 
-1.63174 0.540425 0.80222 0.110777 -0.986895 -0.117332 
-0.870558 -0.841765 3.16039 0.884273 0.438214 0.161335 
0.224845 0.135059 2.0582 -0.0216687 -0.956097 -0.292247 
0.0789227 -0.404333 2.96657 0.944842 -0.272392 -0.181871 
-1.6855 -0.898016 2.29309 0.343607 -0.844985 -0.409799 
-0.891858 -0.786046 3.11553 0.422554 0.408829 -0.808893 
2.15029 0.241477 1.71658 0.402453 -0.815846 -0.415243 
-0.89676 -0.770375 3.13997 0.975706 0.193626 0.1025 
-0.890665 -0.716571 3.16803 0.997962 -0.054174 0.033715 
-0.0138145 -0.513632 3.43514 -0.91208 0.138208 -0.386017 
-0.681054 0.745881 -0.551568 0.871058 0.3259 -0.367488 
1.38368 0.333077 1.1001 0.508641 -0.384897 -0.770155 
-1.73525 -0.317369 1.61559 0.909434 -0.344178 -0.233389 
-0.887671 -0.66596 3.14198 0.985369 0.0923286 -0.143262 
1.37623 0.251434 1.68146 0.00519769 -0.777019 -0.629456 
1.65624 -0.778694 2.04799 -0.070411 -0.592941 -0.802162 
-0.825834 -0.274895 2.91335 0.121427 0.793992 -0.595678 
0.86196 0.336219 -0.334903 0.0777249 0.689523 -0.720081 
-0.428005 0.322278 1.35331 -0.0258127 -0.89075 -0.453761 
-0.81788 -1.23631 3.06735 -0.0218833 0.999713 -0.00973738 
-1.33299 -0.00469578 0.0458459 -0.159665 0.918664 -0.361335 
2.3485 0.489179 1.18924 0.0265706 -0.949884 -0.311472 
-0.786371 -1.1825 3.06946 0.673965 0.666654 -0.318346 
-1.14571 0.321328 -0.503246 0.117125 0.913867 0.388754 
1.89628 0.34338 1.50867 -0.122811 -0.8851 -0.448904 
1.23042 0.0882889 0.757997 -0.398861 -0.875735 -0.272026 
-0.379856 -0.117078 1.3075 -0.927289 0.215154 -0.306339 
-0.775869 -1.23666 3.10785 0.363937 -0.602662 -0.710175 
-1.65669 0.559494 0.757835 0.178693 -0.899547 -0.398603 
-0.735303 -0.299738 3.00596 0.0382503 0.986742 -0.157727 
-0.480226 -0.269916 2.97976 -0.0533172 -0.972793 -0.225456 
-1.93499 0.445986 1.11187 0.350693 -0.813753 -0.463487 
-0.72734 -1.23447 3.15405 0.612354 -0.770116 -0.178728 
0.383585 -0.179258 2.85915 -0.0636743 -0.992813 -0.101334 
-0.733407 -0.274706 2.969 0.803606 -0.0262254 -0.594583 
-1.94011 0.636903 0.640061 -0.0687191 -0.910536 -0.40768 
-0.626106 -0.356575 2.96961 0.436712 0.898246 0.0493594 
-1.58432 0.180511 0.406325 0.920071 0.244035 -0.306457 
-0.62458 -0.358403 3.04233 0.300061 0.860627 -0.411441 
1.08952 0.147675 -0.0366301 -0.720845 -0.53141 0.444956 
1.68711 0.346985 1.43458 -0.0213806 -0.777259 -0.628817 
0.287113 0.358647 -0.0829243 -0.431635 -0.783792 -0.4465 
-1.83434 -0.100128 2.39321 -0.118286 -0.885553 -0.449227 
-0.641536 -0.276713 3.06435 -0.740957 -0.520912 -0.423832 
-0.974368 -0.15657 2.65493 0.173182 -0.61598 -0.76849 
-0.511442 -0.394792 3.10994 0.00989523 0.99843 0.0551416 
-0.233021 0.0582831 1.01712 0.0151846 -0.935288 -0.353561 
1.37012 0.41037 1.26139 -0.135725 -0.80796 -0.573393 
-0.436643 0.110749 2.0774 0.00448626 -0.892512 -0.451002 
1.35586 -0.523389 2.22076 -0.807398 -0.101917 -0.581138 
0.220687 0.807055 0.166715 -0.146109 -0.97142 -0.187069 
-0.374994 -0.780688 2.91906 -0.109693 0.987365 -0.114356 
-1.6345 0.332512 1.46173 -0.0654531 -0.941448 -0.330743 
1.34885 -0.612774 2.25815 -0.880334 -0.465766 -0.0898565 
-0.381185 -0.85962 2.97274 0.0419285 -0.697418 -0.715437 
1.22634 -0.0428365 2.58834 -0.318675 0.933369 0.165131 
-0.345817 -0.723011 3.03994 0.305805 0.772351 -0.556738 
-1.85591 0.105973 0.901925 0.598219 0.744928 0.295324 
-0.0783016 -0.00991323 1.21732 0.0173063 -0.94086 -0.338353 
-0.779932 0.28695 1.45613 0.477587 0.782063 -0.400359 
0.117573 -0.911729 2.67954 0.0321984 -0.912394 -0.408045 
-0.634909 0.80134 -0.486274 -0.273166 -0.487057 0.829551 
0.0297629 0.0077292 1.17518 -0.107844 -0.917933 -0.381796 
0.079168 -0.0259966 1.1707 -0.388009 -0.9148 -0.112202 
0.145039 -0.375459 3.30594 0.55926 -0.718954 -0.412715 
0.38426 -0.329397 2.56389 -0.515612 -0.0593108 -0.854767 
-1.27911 0.702388 0.28855 0.170336 -0.133234 0.976337 
1.63231 -0.013103 0.410718 -0.458599 -0.722175 -0.517832 
2.03178 0.181818 1.90665 2.15871e-005 -0.913699 -0.406393 
0.440342 -0.330113 2.51546 -0.84608 -0.0548179 -0.53023 
0.227135 -0.0582491 1.36366 0.0254775 -0.936476 -0.349806 
0.144624 0.112818 0.939673 0.100086 -0.931556 -0.349553 
0.274783 -0.0843603 1.45598 0.0906941 -0.927437 -0.362817 
0.537778 -0.318632 2.42908 -0.510293 0.157664 -0.845425 
0.469822 0.928239 -0.010581 -0.0470598 -0.844273 -0.533843 
-0.685073 0.714137 0.380031 0.0268458 -0.931965 -0.361554 
-0.196869 -0.449514 3.43869 0.610961 -0.732904 -0.299296 
0.559757 -0.278198 2.49134 -0.644289 0.114696 -0.756133 
0.229196 -0.110819 1.21373 -0.557668 -0.827057 0.0705933 
0.607006 -0.331511 2.44845 -0.649608 0.233148 -0.723638 
0.611341 -0.212254 2.45959 -0.592287 -0.454245 -0.665475 
-1.67934 0.036575 0.567368 0.226013 -0.974038 0.0129439 
0.828854 -0.838537 2.80137 -0.775969 -0.408274 -0.480817 
