ply
format ascii 1.0
comment VCGLIB generated
element vertex 854
property float x
property float y
property float z
property float nx
property float ny
property float nz
element face 0
property list uchar int vertex_indices
end_header
-0.109502 0.114468 -1.33951 -0.0290617 0.669962 0.741827 
-0.107027 0.114516 -1.34009 0.0391559 0.663052 0.747549 
-0.104597 0.114616 -1.34128 0.205501 0.588762 0.781747 
-0.099671 0.114755 -1.34294 0.107369 0.471873 0.875104 
-0.097232 0.114858 -1.34416 0.167362 0.457489 0.873323 
-0.088006 0.111189 -1.30082 -0.687159 -0.396665 0.608663 
-0.086698 0.111081 -1.29955 -0.665086 -0.397267 0.632329 
-0.084082 0.110856 -1.2969 -0.404893 -0.362419 0.839473 
-0.081635 0.110848 -1.2968 0.062895 -0.292802 0.954102 
-0.063079 0.112573 -1.31725 0.84144 0.197499 0.502963 
-0.058428 0.113165 -1.32426 0.80874 0.100019 0.5796 
-0.056103 0.113504 -1.32827 0.865563 0.179841 0.467394 
-0.054993 0.113792 -1.33167 0.849644 0.236574 0.471314 
0.076533 0.121765 -1.42588 -0.881723 0.027864 0.470943 
0.078922 0.121316 -1.42056 -0.776492 -0.321125 0.542162 
0.081353 0.120959 -1.41634 -0.809235 -0.433694 0.396293 
0.083786 0.120629 -1.41243 -0.930623 -0.229338 0.28521 
0.086111 0.120167 -1.40697 -0.790498 0.0736326 0.608022 
0.088564 0.119907 -1.40388 -0.799143 0.23356 0.553913 
0.090921 0.119535 -1.39947 -0.808107 0.135032 0.57335 
0.092147 0.119418 -1.39809 -0.746637 0.0196128 0.664943 
0.093397 0.119335 -1.39711 -0.479118 -0.0287167 0.87728 
0.095982 0.119282 -1.39648 0.0775367 0.0148166 0.996879 
0.098703 0.119398 -1.39783 0.255635 -0.217919 0.941893 
0.1013 0.11936 -1.39738 -0.129049 0.0652721 0.989488 
0.111474 0.119 -1.3931 0.154183 -0.0297257 0.987595 
0.114127 0.119035 -1.39349 0.195368 0.0353149 0.980094 
0.116815 0.119103 -1.39429 0.286465 -0.253957 0.92382 
0.11948 0.119146 -1.39478 0.283801 -0.256897 0.92383 
0.122221 0.119261 -1.39613 0.404159 -0.367979 0.837405 
0.125075 0.119479 -1.39871 0.405765 -0.076919 0.910735 
0.127807 0.119574 -1.39982 0.458004 0.0174585 0.888779 
0.130517 0.119645 -1.40065 0.441833 0.197563 0.875073 
0.133312 0.119789 -1.40234 0.552658 0.258658 0.792253 
0.136199 0.12001 -1.40494 0.661416 0.220384 0.71691 
0.139101 0.120234 -1.40758 0.863898 0.149995 0.480814 
0.14297 0.12127 -1.41981 0.932021 0.264629 0.247605 
-0.214935 0.098571 -1.16413 -0.652716 -0.175513 0.736992 
-0.212334 0.098383 -1.16189 -0.658799 -0.155625 0.736046 
-0.175857 0.098807 -1.16711 0.534005 0.682199 0.499442 
-0.174927 0.098903 -1.16826 0.534005 0.682199 0.499442 
-0.174003 0.099003 -1.16947 0.535527 0.700398 0.471862 
-0.132205 0.114315 -1.35268 -0.636755 0.634282 0.43844 
-0.129243 0.113947 -1.34829 -0.765438 0.528878 0.366596 
-0.127579 0.113595 -1.34409 -0.150984 0.0647676 0.986412 
-0.126285 0.113568 -1.34377 0.328911 0.592682 0.735218 
-0.123885 0.113686 -1.34519 0.493656 0.556351 0.668414 
-0.095805 0.1134 -1.34188 0.165481 0.532269 0.830245 
-0.088058 0.110029 -1.3016 -0.686523 -0.40815 0.601748 
-0.08543 0.109799 -1.29886 -0.666811 -0.366889 0.648657 
-0.054925 0.112398 -1.33 0.881878 0.228169 0.412589 
-0.053768 0.112595 -1.33236 0.686398 0.477618 0.548396 
-0.052587 0.112751 -1.33422 0.683734 0.543849 0.486555 
-0.0514 0.112899 -1.336 0.666631 0.572942 0.476802 
-0.050204 0.113036 -1.33764 0.673825 0.567335 0.473382 
-0.049007 0.113177 -1.33932 0.698159 0.49887 0.51352 
0.077709 0.120169 -1.42283 -0.859722 0.00204501 0.510759 
0.080198 0.119891 -1.4195 -0.803194 -0.062502 0.59243 
0.081405 0.119703 -1.41726 -0.820504 0.10636 0.561659 
0.082661 0.119594 -1.41595 -0.883182 0.0734136 0.46325 
0.089707 0.118352 -1.40109 -0.827748 0.151445 0.540275 
0.090923 0.11822 -1.3995 -0.758644 -0.0321762 0.650711 
0.092144 0.118098 -1.39804 -0.652749 -0.113528 0.749019 
0.09468 0.117983 -1.39665 -0.171349 -0.126651 0.977036 
0.09598 0.117967 -1.39646 0.17425 -0.123706 0.9769 
0.097357 0.118043 -1.39737 0.370543 -0.220127 0.902353 
0.131869 0.118359 -1.40103 0.427473 0.111977 0.897067 
0.133251 0.118416 -1.4017 0.557644 0.0981957 0.824251 
0.134681 0.118514 -1.40287 0.603657 0.121525 0.787927 
0.140909 0.11932 -1.41248 0.909156 0.140586 0.39201 
0.142653 0.119669 -1.41665 0.91381 0.259106 0.312754 
-0.215025 0.097514 -1.16463 -0.621386 -0.220112 0.751951 
-0.213715 0.097417 -1.16347 -0.65221 -0.19707 0.731974 
-0.211058 0.097203 -1.16089 -0.619697 -0.1527 0.769843 
-0.206233 0.096992 -1.15836 -0.363348 -0.0420728 0.930703 
-0.201646 0.096887 -1.1571 -0.145646 0.0650085 0.987199 
-0.197273 0.096882 -1.15705 0.0896891 0.184971 0.978643 
-0.192984 0.096918 -1.15751 0.152981 0.277467 0.948477 
-0.188843 0.097032 -1.15891 0.290365 0.348202 0.891316 
-0.18463 0.097114 -1.15992 0.361555 0.427101 0.828772 
-0.180592 0.097295 -1.16211 0.443078 0.503047 0.742041 
-0.176591 0.097504 -1.16466 0.493312 0.642109 0.586804 
-0.174675 0.09766 -1.16656 0.534587 0.671319 0.51337 
-0.17283 0.09786 -1.16899 0.536302 0.709484 0.457179 
-0.133474 0.113039 -1.35265 -0.650454 0.632908 0.419925 
-0.130516 0.112682 -1.34834 -0.566464 0.697633 0.438665 
-0.127005 0.111824 -1.33799 -0.4105 0.901586 0.136505 
-0.125674 0.11176 -1.33722 0.267978 0.916197 0.297946 
-0.124868 0.112166 -1.34213 0.14228 0.581267 0.801177 
-0.122422 0.112239 -1.34301 0.032549 0.684713 0.728085 
-0.117152 0.112032 -1.34053 -0.243177 0.566925 0.787059 
-0.111982 0.111906 -1.33903 -0.162853 0.56676 0.807627 
-0.106898 0.111857 -1.33846 0.0070415 0.580815 0.814005 
-0.101906 0.111907 -1.33907 0.27611 0.609211 0.743388 
-0.099495 0.112028 -1.34055 0.350436 0.476263 0.806454 
-0.097048 0.112114 -1.3416 0.165481 0.532269 0.830245 
-0.095785 0.112114 -1.3416 0.17327 0.528085 0.831327 
-0.08811 0.108867 -1.30237 -0.768139 -0.399085 0.500693 
-0.086778 0.108734 -1.30076 -0.687237 -0.394651 0.609882 
-0.084188 0.108551 -1.29856 -0.505179 -0.360058 0.784316 
-0.081664 0.108443 -1.29727 -0.261022 -0.444157 0.857083 
-0.07928 0.108522 -1.29823 0.296813 -0.147486 0.943478 
-0.074679 0.108939 -1.30328 0.665213 0.133517 0.734619 
-0.070063 0.109389 -1.30873 0.535009 0.506818 0.675945 
-0.065379 0.109795 -1.31365 0.720212 0.453266 0.525209 
-0.063041 0.110028 -1.31647 0.833977 0.25556 0.489051 
-0.060733 0.110335 -1.32018 0.870533 0.114012 0.47872 
-0.056046 0.110889 -1.3269 0.813132 0.139105 0.565213 
-0.053694 0.111188 -1.33051 0.762616 0.412018 0.498656 
-0.051315 0.111457 -1.33377 0.678585 0.538795 0.499222 
-0.048949 0.111784 -1.33773 0.715101 0.525296 0.461188 
-0.047758 0.111942 -1.33964 0.730292 0.433243 0.528179 
0.076473 0.11899 -1.42477 -0.854054 0.0734194 0.514977 
0.078928 0.118652 -1.42068 -0.805642 -0.0646854 0.58886 
0.081401 0.118365 -1.4172 -0.816036 0.17784 0.549963 
0.08263 0.118217 -1.41542 -0.884069 0.089067 0.458791 
0.083777 0.117959 -1.41229 -0.889786 0.111808 0.442471 
0.086092 0.117493 -1.40666 -0.845494 -0.0705531 0.529303 
0.088506 0.117188 -1.40295 -0.821205 -0.0360889 0.56949 
0.090936 0.11692 -1.39971 -0.761727 -0.249458 0.597949 
0.093403 0.116714 -1.39721 -0.411645 -0.171029 0.895152 
0.096023 0.116705 -1.3971 0.183499 -0.384018 0.904908 
0.098721 0.116788 -1.39809 0.170004 -0.236955 0.956531 
0.103825 0.116614 -1.39598 -0.39447 0.178681 0.901369 
0.108869 0.116394 -1.3933 -0.184253 0.151931 0.971065 
0.114189 0.116475 -1.39426 0.335938 -0.0839684 0.938134 
0.116973 0.116637 -1.39621 0.271301 -0.132489 0.953332 
0.119657 0.116694 -1.39689 0.324585 -0.135586 0.936088 
0.125039 0.116813 -1.39831 0.396497 0.121704 0.909933 
0.130501 0.116994 -1.40048 0.411212 -0.0114787 0.911468 
0.13324 0.117087 -1.40159 0.58469 0.0601063 0.809027 
0.136132 0.117308 -1.40425 0.737789 -0.037125 0.67401 
0.139183 0.117655 -1.40843 0.863723 0.0716405 0.498849 
0.142653 0.118336 -1.41665 0.916508 0.22792 0.328733 
-0.21505 0.096427 -1.16477 -0.654183 -0.214718 0.725217 
-0.212436 0.096237 -1.16246 -0.684121 -0.179491 0.706938 
-0.133154 0.111497 -1.34937 -0.5491 0.734126 0.399436 
-0.131675 0.11132 -1.34721 -0.57949 0.724261 0.373682 
-0.127968 0.11031 -1.33487 -0.663801 0.548894 0.508019 
-0.126681 0.110282 -1.33454 -0.566606 0.579156 0.586119 
-0.125424 0.110282 -1.33454 0.120791 0.664562 0.737406 
-0.123555 0.110857 -1.34158 0.365041 0.877606 0.310729 
-0.095772 0.110836 -1.34142 0.274954 0.467233 0.840294 
-0.088179 0.107726 -1.30342 -0.775562 -0.474861 0.415945 
-0.0855 0.107442 -1.29995 -0.670994 -0.442349 0.595058 
-0.050062 0.110205 -1.33382 0.6965 0.43159 0.573252 
-0.047713 0.110577 -1.33837 0.730292 0.433243 0.528179 
-0.046522 0.110739 -1.34035 0.778186 0.356976 0.516715 
0.075217 0.11778 -1.42637 -0.831727 0.0829685 0.548951 
0.077679 0.117447 -1.42229 -0.840896 0.0287396 0.540434 
0.08259 0.116829 -1.41472 -0.849844 0.20013 0.487559 
0.092202 0.11554 -1.39895 -0.681863 -0.396214 0.614879 
0.093439 0.115444 -1.39777 -0.419428 -0.537338 0.731675 
0.094718 0.1154 -1.39723 -0.0958988 -0.628579 0.771811 
0.097423 0.115493 -1.39835 0.0731267 -0.240551 0.967878 
-0.215111 0.095355 -1.1651 -0.673442 -0.208224 0.709308 
-0.213873 0.095293 -1.16434 -0.677322 -0.203455 0.706994 
-0.211166 0.095062 -1.1615 -0.656465 -0.169921 0.73497 
-0.208672 0.094924 -1.15979 -0.547188 -0.152089 0.823076 
-0.174337 0.095275 -1.16428 0.462706 0.647895 0.605091 
-0.170512 0.095591 -1.1682 0.525955 0.709269 0.469371 
-0.169614 0.095706 -1.16962 0.517254 0.710675 0.476854 
-0.134209 0.110052 -1.3472 -0.484103 0.781017 0.394534 
-0.132756 0.109898 -1.3453 -0.468666 0.780397 0.413923 
-0.1313 0.109739 -1.34334 -0.549189 0.725158 0.415376 
-0.129496 0.109283 -1.33771 -0.739045 0.585211 0.333679 
-0.127914 0.109007 -1.3343 -0.692441 -0.156644 0.704264 
-0.126531 0.108897 -1.33295 -0.748832 0.442344 0.493541 
-0.124997 0.108654 -1.32995 -0.434096 0.749755 0.499428 
-0.12392 0.108806 -1.33184 0.677305 0.719461 0.153733 
-0.122104 0.109425 -1.3395 0.444991 0.727822 0.521784 
-0.119557 0.1094 -1.3392 -0.0657604 0.733029 0.677011 
-0.099349 0.109343 -1.33856 0.393806 0.606612 0.690607 
-0.096985 0.109518 -1.34074 0.274954 0.467233 0.840294 
-0.095774 0.109576 -1.34145 0.274954 0.467233 0.840294 
-0.094395 0.10944 -1.33977 -0.632314 0.485204 0.603951 
-0.092874 0.109133 -1.33599 -0.599408 0.65646 0.458008 
-0.088324 0.106674 -1.30559 -0.700037 -0.610424 0.370581 
-0.086918 0.106456 -1.30289 -0.679155 -0.575504 0.455569 
-0.084281 0.106222 -1.30002 -0.575216 -0.482713 0.66039 
-0.08173 0.106087 -1.29835 -0.249104 -0.458198 0.85323 
-0.079291 0.106092 -1.29842 0.0869403 -0.494833 0.864628 
-0.076976 0.10627 -1.30063 0.605364 -0.202302 0.769811 
-0.074661 0.106458 -1.30296 0.590796 0.0617502 0.804454 
-0.072356 0.106674 -1.30564 0.600367 0.33437 0.726468 
-0.070006 0.106838 -1.30767 0.443594 0.452152 0.773811 
-0.067613 0.106945 -1.309 0.511602 0.557617 0.653702 
-0.062896 0.107302 -1.31342 0.812261 0.417323 0.407521 
-0.060715 0.107817 -1.31979 0.87028 0.209014 0.446011 
-0.058398 0.108125 -1.32361 0.799841 0.165462 0.576954 
-0.053662 0.108618 -1.32972 0.764434 0.2173 0.606977 
-0.051258 0.108825 -1.33229 0.701724 0.400953 0.588914 
-0.048862 0.109072 -1.33534 0.756948 0.444483 0.479024 
-0.046498 0.109422 -1.33967 0.809702 0.345262 0.474528 
0.075222 0.116444 -1.42646 -0.810053 -0.0175372 0.586094 
0.076455 0.116281 -1.42444 -0.822755 -0.038589 0.567084 
0.078896 0.115933 -1.42012 -0.861036 0.17172 0.478674 
0.081319 0.115581 -1.41577 -0.795141 0.228636 0.561673 
0.083751 0.115265 -1.41184 -0.817037 0.171798 0.550396 
0.086113 0.114874 -1.40701 -0.812229 -0.161092 0.560655 
0.091059 0.11444 -1.40163 -0.597527 -0.653296 0.464936 
0.093595 0.114319 -1.40012 -0.514439 -0.733946 0.443481 
0.096131 0.114204 -1.39869 -0.329841 -0.599184 0.729509 
0.098669 0.114098 -1.39737 -0.200138 -0.0383894 0.979015 
0.101219 0.114009 -1.39627 -0.428424 0.195993 0.882065 
0.106292 0.113818 -1.39389 -0.340188 0.235269 0.910451 
0.111431 0.113713 -1.39257 0.0955312 0.0794318 0.992252 
0.116925 0.113962 -1.39563 0.365948 -0.0664351 0.928261 
0.133305 0.114505 -1.40228 0.613575 -0.145229 0.776166 
0.13626 0.114773 -1.40559 0.794452 -0.0799618 0.602041 
0.139425 0.115204 -1.4109 0.851939 0.0190546 0.523294 
0.142565 0.115599 -1.41578 0.874743 0.207842 0.437751 
-0.215246 0.094316 -1.16585 -0.686392 -0.169994 0.707084 
-0.212564 0.094101 -1.16317 -0.683344 -0.161279 0.71206 
-0.169359 0.094461 -1.16785 0.516144 0.716061 0.469949 
-0.168408 0.094544 -1.1689 0.516144 0.716061 0.469949 
-0.133964 0.108585 -1.34472 -0.455984 0.77076 0.444981 
-0.131065 0.10828 -1.34092 -0.534393 0.726519 0.431965 
-0.127918 0.107754 -1.33435 -0.608146 -0.130962 0.782948 
-0.126253 0.107406 -1.33 0.693337 0.571512 -0.438929 
-0.124985 0.107391 -1.32982 -0.929862 0.0979308 0.354636 
-0.123733 0.10739 -1.32982 0.974748 0.216408 -0.0550875 
-0.123062 0.107899 -1.33618 0.585061 0.263622 0.766946 
-0.095637 0.108157 -1.33951 -0.196657 0.769116 0.608101 
-0.092827 0.10782 -1.3353 -0.622535 0.625234 0.470672 
-0.088493 0.105646 -1.30811 -0.678438 -0.650106 0.342176 
-0.085696 0.105233 -1.30296 -0.634108 -0.643559 0.428648 
-0.002491 0.112382 -1.39252 0.418522 0.738197 0.529061 
-0.001182 0.112449 -1.39336 0.447855 0.719266 0.531114 
0.000128 0.112518 -1.39422 0.503751 0.679096 0.533913 
0.00144 0.112613 -1.39541 0.509403 0.665801 0.545177 
0.002754 0.112718 -1.39673 0.557222 0.642152 0.526445 
0.073967 0.115236 -1.42814 -0.783483 -0.0115411 0.621306 
0.075225 0.115108 -1.42653 -0.783483 -0.0115411 0.621306 
0.077718 0.114828 -1.42302 -0.87488 -0.00817813 0.484271 
0.080065 0.114359 -1.41714 -0.833048 0.209996 0.511793 
0.082535 0.11409 -1.41378 -0.799367 0.209845 0.563008 
0.092521 0.113298 -1.40384 -0.348829 -0.711187 0.610354 
0.093778 0.113223 -1.40289 -0.499716 -0.633827 0.590379 
0.094971 0.113073 -1.40101 -0.489251 -0.773217 0.403446 
0.097408 0.112844 -1.39814 -0.492473 -0.283155 0.822979 
0.144104 0.114432 -1.41784 0.797922 0.236375 0.55448 
-0.215303 0.093241 -1.16616 -0.702397 -0.143217 0.697228 
-0.213947 0.093129 -1.16475 -0.697822 -0.116149 0.706791 
-0.211298 0.092929 -1.16223 -0.660684 -0.170967 0.730936 
-0.206289 0.092647 -1.15868 -0.438137 -0.0771256 0.895593 
-0.201649 0.092523 -1.15712 -0.267689 -0.0138573 0.963406 
-0.197148 0.092458 -1.15632 -0.0243969 0.0905068 0.995597 
-0.192802 0.092464 -1.15642 0.124576 0.211056 0.969503 
-0.188584 0.092533 -1.15731 0.168225 0.2864 0.943226 
-0.184386 0.092616 -1.15838 0.273434 0.37191 0.887084 
-0.180251 0.092735 -1.1599 0.33341 0.426116 0.840989 
-0.176121 0.092863 -1.16154 0.332252 0.488303 0.806951 
-0.172053 0.093031 -1.16368 0.438131 0.630506 0.640706 
-0.170066 0.093144 -1.16512 0.479352 0.688306 0.544479 
-0.168182 0.093317 -1.16732 0.510788 0.715734 0.476258 
-0.16723 0.093399 -1.16836 0.5434 0.717082 0.436475 
-0.136536 0.107352 -1.34513 -0.440494 0.791498 0.42367 
-0.135075 0.107197 -1.34318 -0.427261 0.777563 0.46135 
-0.132285 0.106984 -1.34049 -0.532111 0.728369 0.431667 
-0.129472 0.106745 -1.33747 -0.700707 0.440915 0.560895 
-0.126705 0.106534 -1.33481 0.0301284 -0.213531 0.976472 
-0.124238 0.106572 -1.33531 0.103707 0.386026 0.91664 
-0.121808 0.106644 -1.33622 0.0915495 0.643897 0.759616 
-0.116804 0.106666 -1.33652 -0.00395069 0.635379 0.77219 
-0.111704 0.106598 -1.33568 -0.0496553 0.493429 0.868368 
-0.106629 0.106549 -1.33507 0.0189891 0.498459 0.866705 
-0.10163 0.106575 -1.33542 0.0995906 0.554979 0.825881 
-0.099161 0.106621 -1.33602 0.082228 0.724083 0.684794 
-0.096695 0.106674 -1.33669 -0.141724 0.685887 0.713774 
-0.094086 0.106567 -1.33535 -0.625673 0.602806 0.495135 
-0.092602 0.106306 -1.33204 -0.596102 0.563543 0.57191 
-0.090524 0.105346 -1.3199 -0.748765 0.552205 0.366635 
-0.088685 0.104641 -1.31099 -0.863909 0.199795 0.462323 
-0.087265 0.104418 -1.30817 -0.669208 -0.64926 0.361418 
-0.084534 0.104086 -1.30397 -0.569613 -0.71977 0.396827 
-0.081825 0.103762 -1.29988 -0.430288 -0.678317 0.5956 
-0.079354 0.10373 -1.29948 0.0502307 -0.609255 0.791382 
-0.076988 0.103836 -1.30083 0.431455 -0.391578 0.812719 
-0.074633 0.103966 -1.30248 0.41999 0.15792 0.893683 
-0.069849 0.104141 -1.30471 0.420863 0.59015 0.68891 
-0.064957 0.10417 -1.30509 0.429378 0.644762 0.632389 
-0.062661 0.104436 -1.30846 0.716553 0.572677 0.398237 
-0.060714 0.10533 -1.31978 0.868013 0.328018 0.372769 
-0.056015 0.105834 -1.32617 0.814417 0.149928 0.560577 
-0.051244 0.10629 -1.33195 0.750653 0.141588 0.645348 
-0.046444 0.106774 -1.33809 0.832999 0.240365 0.498335 
-0.044067 0.107116 -1.34242 0.845742 0.252571 0.47003 
-0.005092 0.110705 -1.38788 0.411669 0.708606 0.573067 
-0.00379 0.110785 -1.3889 0.390834 0.752041 0.530738 
-0.001179 0.110857 -1.38981 0.437201 0.724859 0.532386 
0.001437 0.111064 -1.39242 0.503751 0.679096 0.533913 
0.004066 0.111371 -1.39632 0.60647 0.609088 0.511083 
0.073928 0.113833 -1.42738 -0.798377 -0.0540084 0.599731 
0.076499 0.113666 -1.42526 -0.808661 -0.0476231 0.586344 
0.078868 0.113221 -1.41962 -0.883565 0.120912 0.452431 
0.08004 0.11299 -1.4167 -0.85285 0.172346 0.492892 
0.081277 0.112859 -1.41504 -0.795032 0.212754 0.568032 
0.08374 0.112593 -1.41166 -0.807848 0.176894 0.562219 
0.086175 0.112308 -1.40805 -0.682836 -0.10649 0.722769 
0.088715 0.112172 -1.40632 -0.474612 -0.0046098 0.880183 
0.091284 0.112079 -1.40514 -0.50636 -0.381794 0.773197 
0.093841 0.111978 -1.40385 -0.692255 -0.336294 0.638506 
0.096206 0.111659 -1.3998 -0.692723 -0.150099 0.705412 
0.098653 0.111449 -1.39714 -0.62133 -0.0472805 0.782122 
0.103694 0.11122 -1.39422 -0.416598 0.132859 0.89933 
0.10625 0.111151 -1.39334 -0.297209 0.166422 0.940197 
0.108822 0.111102 -1.39271 -0.14264 0.156873 0.977264 
0.11142 0.111081 -1.39244 0.152123 -0.0311507 0.987871 
0.114211 0.111248 -1.39455 0.319749 0.0118965 0.947428 
0.119518 0.111306 -1.39526 0.13136 0.193639 0.972239 
0.124819 0.111353 -1.39584 0.364028 0.31513 0.876457 
0.130542 0.111758 -1.40094 0.662196 -0.0149441 0.749182 
0.136227 0.112101 -1.40525 0.695705 0.0325635 0.717589 
0.142459 0.112851 -1.41473 0.779706 0.33349 0.529946 
0.143999 0.113015 -1.4168 0.781498 0.296523 0.548939 
-0.213978 0.092044 -1.16492 -0.704623 -0.103206 0.702037 
-0.212633 0.091937 -1.16356 -0.675855 -0.122315 0.726815 
-0.167031 0.092188 -1.16696 0.518642 0.696684 0.495623 
-0.166091 0.092277 -1.1681 0.542468 0.709153 0.450366 
-0.165164 0.092374 -1.16935 0.549109 0.704612 0.449446 
-0.138977 0.106017 -1.34425 -0.394434 0.796767 0.457803 
-0.137571 0.105908 -1.34286 -0.370928 0.813631 0.447679 
-0.136198 0.105823 -1.34177 -0.370928 0.813631 0.447679 
-0.133382 0.105592 -1.33883 -0.497541 0.703046 0.508113 
-0.125452 0.105279 -1.33485 0.126714 0.109872 0.985836 
-0.124242 0.105318 -1.33535 0.103707 0.386026 0.91664 
-0.122985 0.105317 -1.33534 0.103707 0.386027 0.91664 
-0.095333 0.1053 -1.33522 -0.232226 0.617647 0.751388 
-0.093948 0.105155 -1.33337 -0.596038 0.562815 0.572693 
-0.09028 0.103823 -1.31631 -0.748765 0.552205 0.366635 
-0.088806 0.103547 -1.31279 -0.808801 0.459371 0.367177 
-0.087455 0.10341 -1.31104 -0.796546 -0.0696604 0.600552 
-0.086039 0.103191 -1.30824 -0.855831 -0.144226 0.496741 
-0.08333 0.102887 -1.30434 -0.659295 -0.503688 0.558237 
-0.082018 0.10278 -1.30298 -0.525141 -0.466523 0.711747 
-0.080696 0.102657 -1.30141 -0.431448 -0.52419 0.734219 
-0.045243 0.10565 -1.33983 0.837793 0.207052 0.505205 
-0.044052 0.105815 -1.34195 0.844237 0.216637 0.490237 
-0.010269 0.108944 -1.38205 0.379315 0.635753 0.672263 
-0.008973 0.108984 -1.38257 0.385397 0.640478 0.664272 
-0.007678 0.109054 -1.38346 0.44634 0.628609 0.636892 
-0.006382 0.109142 -1.38459 0.351639 0.763146 0.542179 
-0.005084 0.109213 -1.38551 0.424691 0.729762 0.535803 
-0.003783 0.109272 -1.38626 0.56954 0.52244 0.634571 
-0.002482 0.109358 -1.38736 0.56954 0.52244 0.634571 
0.00538 0.110072 -1.39651 0.613563 0.509937 0.602913 
0.0067 0.110189 -1.39801 0.643491 0.480755 0.595646 
0.08004 0.111659 -1.41672 -0.85228 0.180151 0.491084 
0.082465 0.111335 -1.41258 -0.817906 0.192564 0.54217 
0.107501 0.10978 -1.39257 -0.101901 0.118286 0.987737 
0.143879 0.111589 -1.41561 0.73593 0.366255 0.569442 
0.145366 0.111709 -1.41715 0.73593 0.366255 0.569442 
-0.214002 0.090955 -1.16505 -0.690144 -0.114113 0.714618 
-0.211378 0.090771 -1.16268 -0.6498 -0.139446 0.747205 
-0.208837 0.09062 -1.16073 -0.588918 -0.160874 0.792019 
-0.16977 0.090789 -1.16307 0.452745 0.621457 0.639385 
-0.167788 0.090902 -1.16455 0.504719 0.643592 0.575368 
-0.165865 0.091051 -1.16649 0.536295 0.693515 0.481065 
-0.164061 0.09127 -1.16935 0.544689 0.711492 0.443951 
-0.13726 0.104408 -1.3398 -0.367934 0.815637 0.446499 
-0.134531 0.104247 -1.33772 -0.327864 0.759343 0.562053 
-0.131885 0.104144 -1.3364 -0.279377 0.710469 0.645897 
-0.129249 0.104047 -1.33515 -0.245531 0.423814 0.871835 
-0.126685 0.104004 -1.33461 0.104782 0.295409 0.949608 
-0.124155 0.103988 -1.33441 0.113762 0.443793 0.888879 
-0.121632 0.103977 -1.33428 0.025651 0.522199 0.852438 
-0.119121 0.103977 -1.33429 0.0447759 0.573814 0.817761 
-0.09902 0.103958 -1.33411 -0.00032642 0.565984 0.824416 
-0.096565 0.104018 -1.33489 -0.188028 0.624249 0.75826 
-0.095208 0.103906 -1.33345 -0.465343 0.602511 0.648411 
-0.090083 0.102359 -1.31341 -0.738395 0.509412 0.441895 
-0.08745 0.102171 -1.31098 -0.796546 -0.0696604 0.600552 
-0.084803 0.101954 -1.30817 -0.819058 0.178498 0.545236 
-0.082079 0.101629 -1.30397 -0.722951 -0.365256 0.586456 
-0.079497 0.101465 -1.30185 -0.431448 -0.52419 0.734219 
-0.077028 0.10144 -1.30153 -0.0934461 -0.0763521 0.992692 
-0.062527 0.101754 -1.30564 0.787506 0.352913 0.50526 
-0.060508 0.102496 -1.31526 0.832832 0.498447 0.240711 
-0.058317 0.102998 -1.32178 0.825032 0.338194 0.45271 
-0.055981 0.103275 -1.32538 0.832416 0.110153 0.543093 
-0.053622 0.103534 -1.32873 0.772498 0.0919906 0.628318 
-0.048839 0.103996 -1.33473 0.78664 0.106373 0.608179 
-0.046426 0.104215 -1.33757 0.803392 0.190839 0.564041 
-0.044037 0.104517 -1.3415 0.836518 0.196747 0.511398 
-0.04284 0.104675 -1.34354 0.847248 0.200034 0.492094 
-0.012846 0.107463 -1.37972 0.0399192 0.826161 0.562019 
-0.011549 0.107466 -1.37976 0.0698042 0.821019 0.566618 
-0.008957 0.107492 -1.38009 0.379315 0.635753 0.672263 
-0.006373 0.107681 -1.38255 0.44634 0.628609 0.636892 
-0.003779 0.107861 -1.38488 0.582897 0.539643 0.607467 
-0.001177 0.108078 -1.38769 0.570748 0.523943 0.632242 
0.001435 0.108301 -1.39059 0.635201 0.503241 0.585891 
0.004058 0.108527 -1.39352 0.660239 0.493694 0.565996 
0.006695 0.10879 -1.39693 0.643491 0.480755 0.595646 
0.07648 0.110958 -1.42492 -0.846762 0.012146 0.531833 
0.078813 0.110472 -1.41862 -0.88015 0.131852 0.456016 
0.081209 0.110105 -1.41385 -0.820981 0.192541 0.537512 
0.083656 0.109827 -1.41025 -0.77935 0.15026 0.608305 
0.08616 0.10964 -1.40782 -0.678411 0.0486683 0.733069 
0.088728 0.109542 -1.40654 -0.48921 0.0250551 0.871806 
0.091245 0.109388 -1.40454 -0.617746 -0.0101562 0.786312 
0.096227 0.109048 -1.40012 -0.768509 -0.0429915 0.638393 
0.101142 0.108672 -1.39522 -0.523752 -0.114257 0.844174 
0.103671 0.108572 -1.39392 -0.455472 0.0365654 0.889499 
0.106201 0.108479 -1.3927 -0.190822 0.0139563 0.981525 
0.107494 0.108463 -1.39249 -0.0404853 0.0126766 0.9991 
0.108784 0.108443 -1.39223 0.0265711 -0.079591 0.996473 
0.111422 0.108463 -1.39248 0.10836 -0.177313 0.978171 
0.12759 0.108852 -1.39746 0.690129 0.186993 0.699111 
0.139136 0.109666 -1.40797 0.765732 0.255216 0.590355 
0.142241 0.11002 -1.41254 0.749765 0.350976 0.560953 
0.143737 0.110148 -1.41421 0.702098 0.377911 0.603524 
-0.21402 0.089864 -1.16516 -0.687047 -0.153993 0.710107 
-0.212744 0.089789 -1.16418 -0.675244 -0.164884 0.718929 
-0.162851 0.090108 -1.16857 0.528914 0.720634 0.44826 
-0.161946 0.090217 -1.17001 0.531379 0.717035 0.451107 
-0.095106 0.102542 -1.33202 -0.581463 0.596612 0.553132 
-0.09135 0.101157 -1.31386 -0.754934 0.511872 0.409954 
-0.061456 0.100784 -1.30905 0.773156 0.481997 0.4122 
-0.060301 0.100912 -1.31073 0.802014 0.560957 0.205184 
-0.059272 0.101261 -1.31531 0.82536 0.53559 0.178674 
-0.057084 0.101771 -1.32201 0.879445 0.250523 0.404741 
-0.042824 0.103372 -1.34305 0.836176 0.257082 0.484478 
-0.041627 0.103536 -1.3452 0.841464 0.314087 0.439645 
-0.015421 0.106025 -1.37789 -0.0164184 0.825002 0.564891 
-0.014123 0.106012 -1.37771 0.113221 0.709022 0.696038 
-0.012826 0.106 -1.37756 0.142444 0.705805 0.693937 
0.00801 0.107507 -1.39734 0.676726 0.374357 0.633955 
0.107488 0.107146 -1.3924 0.0127354 -0.473933 0.880469 
0.143614 0.108725 -1.41299 0.807804 0.256667 0.530635 
-0.212777 0.088705 -1.16436 -0.658197 -0.185404 0.729658 
-0.211468 0.088616 -1.16319 -0.645463 -0.192392 0.739164 
-0.206432 0.088337 -1.1595 -0.529695 -0.136979 0.837054 
-0.201692 0.088176 -1.15738 -0.34142 -0.0616596 0.937886 
-0.19713 0.088087 -1.15622 -0.175242 0.0476759 0.98337 
-0.192689 0.08805 -1.15574 0.028035 0.151886 0.988 
-0.188364 0.088065 -1.15595 0.13836 0.25331 0.95744 
-0.184136 0.088127 -1.1568 0.160225 0.350845 0.922624 
-0.179947 0.088211 -1.15793 0.218844 0.419305 0.881074 
-0.175733 0.088287 -1.15896 0.296079 0.477054 0.8275 
-0.171608 0.088412 -1.16065 0.368646 0.525962 0.766462 
-0.167535 0.088572 -1.16278 0.463162 0.559716 0.687168 
-0.163573 0.0888 -1.16584 0.536002 0.707898 0.459981 
-0.161696 0.088977 -1.16819 0.513182 0.718592 0.46933 
-0.160765 0.089071 -1.16944 0.512564 0.729461 0.452951 
-0.159822 0.089159 -1.17062 0.512564 0.729461 0.452951 
-0.136691 0.101463 -1.33419 -0.144805 0.818738 0.555608 
-0.134199 0.101476 -1.33439 -0.119922 0.744227 0.657073 
-0.131611 0.101418 -1.33361 -0.0520095 0.704905 0.707392 
-0.126495 0.101339 -1.3326 -0.098208 0.565672 0.818762 
-0.121457 0.101319 -1.33235 0.00315708 0.526136 0.850395 
-0.11647 0.101342 -1.33268 0.0263716 0.481042 0.876301 
-0.111447 0.101335 -1.33259 0.0321422 0.392313 0.91927 
-0.106434 0.101336 -1.33263 0.0417179 0.351872 0.935118 
-0.101431 0.101348 -1.3328 -0.060586 0.352667 0.933785 
-0.098925 0.101349 -1.33283 -0.232184 0.55733 0.797166 
-0.096361 0.10129 -1.33205 -0.354874 0.547983 0.757482 
-0.091249 0.09981 -1.3124 -0.656728 0.571714 0.491784 
-0.089839 0.099615 -1.30982 -0.634409 0.596188 0.492022 
-0.08713 0.099337 -1.30613 -0.615225 0.404798 0.676489 
-0.08457 0.099217 -1.30455 -0.728142 0.29517 0.618614 
-0.079479 0.098991 -1.30156 -0.336171 0.0904836 0.937444 
-0.074535 0.098931 -1.30078 -0.0899189 0.279756 0.955851 
-0.069615 0.098896 -1.30032 0.279343 0.381555 0.881126 
-0.064861 0.09911 -1.30317 0.533525 0.244519 0.809668 
-0.062486 0.099231 -1.30479 0.721734 0.425427 0.545997 
-0.060249 0.099592 -1.30959 0.762891 0.526999 0.374526 
-0.059054 0.099654 -1.31042 0.712118 0.63426 0.301001 
-0.058036 0.100025 -1.31535 0.889952 0.424607 0.166417 
-0.055971 0.100763 -1.32516 0.858706 0.0670811 0.50806 
-0.051209 0.101205 -1.33104 0.767836 0.0821631 0.635356 
-0.046403 0.101648 -1.33693 0.804518 0.152726 0.573955 
-0.044005 0.101917 -1.34051 0.80667 0.231155 0.543921 
-0.041604 0.102213 -1.34445 0.827121 0.303593 0.472972 
-0.040414 0.102404 -1.34698 0.843391 0.324789 0.428024 
-0.017987 0.104588 -1.37602 -0.0699866 0.842609 0.533959 
-0.016691 0.104573 -1.37582 0.0187321 0.780626 0.624718 
-0.014096 0.104512 -1.37501 0.12675 0.72217 0.680004 
-0.011519 0.104594 -1.37611 0.394456 0.656688 0.64278 
-0.006366 0.104965 -1.38103 0.549741 0.423923 0.719774 
-0.001177 0.105444 -1.3874 0.665329 0.255961 0.7013 
0.004056 0.105839 -1.39265 0.629803 0.195827 0.751665 
0.006687 0.106034 -1.39523 0.658993 0.359168 0.660853 
0.008005 0.106126 -1.39645 0.556041 0.406887 0.724749 
0.074003 0.108572 -1.42887 -0.81869 0.0287117 0.573518 
0.076532 0.10835 -1.4259 -0.853438 0.0861411 0.514027 
0.078745 0.10771 -1.4174 -0.905448 0.0428402 0.422291 
0.081178 0.107403 -1.41331 -0.840703 0.0637487 0.537732 
0.083635 0.107147 -1.40991 -0.7965 -0.0194405 0.604326 
0.088683 0.106841 -1.40582 -0.558856 0.182665 0.808896 
0.093704 0.106539 -1.4018 -0.646739 0.159538 0.74584 
0.098706 0.106248 -1.39792 -0.568481 -0.0936367 0.81735 
0.101197 0.106104 -1.396 -0.380133 -0.46804 0.797771 
0.10369 0.105969 -1.3942 -0.432074 -0.50396 0.747888 
0.106187 0.105845 -1.39253 -0.084938 -0.579077 0.810836 
0.108882 0.105918 -1.3935 0.07294 -0.675751 0.733513 
0.111526 0.10594 -1.39379 -0.299493 -0.491187 0.817949 
0.114146 0.10594 -1.39377 -0.0242063 -0.129817 0.991242 
0.119424 0.105971 -1.39417 0.0554808 0.249513 0.966781 
0.124683 0.105984 -1.39433 0.266712 0.418374 0.868233 
0.127487 0.106136 -1.39633 0.733709 0.172083 0.657311 
0.130453 0.106413 -1.39999 0.645069 0.173748 0.744108 
0.135991 0.106626 -1.40281 0.4879 0.407186 0.772109 
0.142051 0.107218 -1.41065 0.803289 0.233168 0.54805 
0.143545 0.107344 -1.41231 0.85025 0.191983 0.49012 
-0.212818 0.087623 -1.16459 -0.653597 -0.22422 0.722867 
-0.160514 0.087831 -1.1676 0.516204 0.713908 0.473148 
-0.135197 0.10003 -1.33183 0.0999855 0.822574 0.5598 
-0.132759 0.100082 -1.33253 0.0887223 0.814568 0.573243 
-0.097607 0.100029 -1.33195 -0.299095 0.459692 0.836197 
-0.096205 0.099874 -1.32987 -0.476691 0.527472 0.703235 
-0.092531 0.098625 -1.31309 -0.734936 0.539183 0.41128 
-0.091074 0.098385 -1.30986 -0.669041 0.558188 0.490725 
-0.059008 0.098343 -1.30938 0.661516 0.57696 0.479076 
-0.057822 0.098423 -1.31046 0.871716 0.437015 0.221653 
-0.056956 0.099059 -1.31902 0.957675 0.185336 0.220249 
-0.040385 0.101062 -1.34599 0.843391 0.324789 0.428024 
-0.0392 0.101271 -1.3488 0.777709 0.497717 0.383987 
-0.037985 0.101416 -1.35075 0.717849 0.550001 0.426839 
-0.036794 0.101633 -1.35368 0.622493 0.641124 0.448845 
-0.035562 0.101752 -1.35528 0.601307 0.640976 0.477053 
-0.020544 0.103137 -1.37392 0.0458599 0.871169 0.488836 
-0.01925 0.103123 -1.37374 0.0671488 0.839116 0.539791 
-0.017955 0.103106 -1.3735 0.0348419 0.831258 0.554793 
0.008001 0.104752 -1.39565 0.60976 0.413615 0.676103 
0.072753 0.107367 -1.43074 -0.901908 0.118383 0.415388 
0.105087 0.104742 -1.39534 -0.061677 -0.43917 0.896284 
0.10638 0.104723 -1.39508 -0.00970494 -0.831219 0.55586 
0.107683 0.104716 -1.39497 0.0519748 -0.796093 0.602939 
0.109103 0.10482 -1.39637 -0.10763 -0.67898 0.726225 
0.110265 0.104677 -1.39444 -0.129797 -0.686902 0.715065 
0.112818 0.104612 -1.39356 -0.124925 0.0587389 0.990426 
0.125994 0.104672 -1.39432 0.578869 -0.0184273 0.815212 
0.128966 0.104957 -1.39814 0.611514 0.1045 0.784302 
0.143519 0.105996 -1.41206 0.85515 0.190364 0.482162 
-0.212944 0.086577 -1.16529 -0.653597 -0.22422 0.722867 
-0.211624 0.086486 -1.16406 -0.642846 -0.239332 0.727646 
-0.209024 0.086318 -1.16179 -0.634728 -0.174963 0.752667 
-0.161293 0.086557 -1.16525 0.490616 0.667757 0.559819 
-0.15938 0.086711 -1.16735 0.517707 0.701354 0.489982 
-0.157477 0.086875 -1.16959 0.526822 0.719832 0.451996 
-0.13494 0.098589 -1.32928 0.29611 0.798376 0.524324 
-0.133763 0.098643 -1.33002 0.17864 0.792759 0.58277 
-0.131401 0.098748 -1.33146 0.204934 0.728156 0.654057 
-0.128851 0.098714 -1.33101 0.0503572 0.593127 0.803533 
-0.126315 0.098689 -1.33068 -0.0169711 0.457898 0.888843 
-0.123813 0.098691 -1.33071 0.0341705 0.422548 0.905696 
-0.103881 0.098783 -1.33205 0.00249575 0.327368 0.944893 
-0.098844 0.098759 -1.33173 -0.356665 0.418685 0.835161 
-0.09754 0.098707 -1.33104 -0.501606 0.467413 0.727953 
-0.092346 0.097194 -1.31043 -0.669041 0.558188 0.490725 
-0.089662 0.096957 -1.30722 -0.613894 0.494009 0.615702 
-0.087067 0.096808 -1.30519 -0.505088 0.421534 0.753124 
-0.071991 0.096352 -1.29902 0.0925675 0.12657 0.987629 
-0.069567 0.09638 -1.29942 0.306258 0.173913 0.935928 
-0.067224 0.096528 -1.30143 0.485582 0.111959 0.866992 
-0.062465 0.096742 -1.30436 0.543444 0.335358 0.769547 
-0.060093 0.096875 -1.30618 0.641236 0.572451 0.510996 
-0.058905 0.096941 -1.30709 0.5786 0.617734 0.532566 
-0.057824 0.097192 -1.3105 0.943679 0.292842 0.153989 
-0.056958 0.097822 -1.31908 0.973434 0.174333 0.14844 
-0.055974 0.098272 -1.32522 0.867571 0.0648094 0.493073 
-0.053604 0.098499 -1.32831 0.769967 0.0824206 0.632738 
-0.043975 0.099326 -1.3396 0.787571 0.209416 0.579548 
-0.041543 0.099538 -1.34249 0.809077 0.278053 0.517766 
-0.039149 0.099871 -1.34703 0.775476 0.456752 0.435908 
-0.036715 0.100145 -1.35077 0.717849 0.550001 0.426839 
-0.034273 0.100434 -1.35471 0.601307 0.640976 0.477053 
-0.031812 0.100707 -1.35843 0.537755 0.696693 0.474804 
-0.029302 0.100862 -1.36055 0.623743 0.504801 0.596758 
-0.026811 0.10112 -1.36407 0.550005 0.706111 0.445985 
-0.024334 0.101488 -1.36908 0.304157 0.839415 0.450411 
-0.02308 0.101636 -1.37109 0.0680267 0.883846 0.462806 
-0.021791 0.101636 -1.37109 0.192128 0.829371 0.524624 
-0.019207 0.101605 -1.37067 0.162746 0.79292 0.58719 
-0.016637 0.101652 -1.37132 0.0869645 0.753424 0.651759 
-0.014075 0.101772 -1.37294 0.305456 0.607368 0.733349 
-0.011511 0.101931 -1.37512 0.367016 0.593346 0.716407 
-0.008939 0.102098 -1.37739 0.597306 0.376265 0.708273 
0.006683 0.103352 -1.39448 0.501394 0.348432 0.791959 
0.007996 0.10338 -1.39486 0.602953 0.386151 0.698094 
0.071456 0.106091 -1.4317 -0.957077 0.0161865 0.289381 
0.073962 0.105827 -1.42809 -0.863588 0.168153 0.475333 
0.07638 0.105457 -1.42306 -0.866748 0.191986 0.460314 
0.078756 0.105058 -1.41761 -0.885742 0.0323568 0.463049 
0.0812 0.104773 -1.41372 -0.8322 -0.111068 0.543238 
0.083646 0.104508 -1.4101 -0.754449 -0.0380566 0.655255 
0.086118 0.10429 -1.40713 -0.698795 0.0879645 0.709892 
0.101287 0.103568 -1.39725 -0.317849 -0.166851 0.933345 
0.103898 0.103552 -1.39702 -0.307792 -0.0277734 0.951048 
0.106417 0.103447 -1.39558 0.291021 -0.357958 0.887228 
0.109102 0.103505 -1.39635 -0.295347 0.118941 0.947957 
0.111576 0.103364 -1.39443 -0.429151 -0.00206079 0.90323 
0.114088 0.103264 -1.39306 -0.150111 0.142498 0.978346 
0.116694 0.103251 -1.39288 -0.0511543 0.0763299 0.99577 
0.121963 0.103277 -1.39321 0.11358 0.147935 0.982454 
0.124596 0.103288 -1.39335 0.578869 -0.0184272 0.815212 
0.125937 0.103314 -1.39369 0.578869 -0.0184273 0.815212 
0.127453 0.10348 -1.39596 0.751565 0.0588583 0.657028 
0.130371 0.103713 -1.39912 0.604249 0.160997 0.780361 
0.133116 0.103802 -1.40032 0.397349 0.337458 0.853367 
0.138643 0.103997 -1.40296 0.681191 0.389191 0.620088 
0.141861 0.104423 -1.40875 0.83875 0.222226 0.497106 
0.14515 0.104886 -1.41504 0.858893 0.129389 0.495542 
-0.212964 0.085486 -1.1654 -0.652277 -0.224525 0.723963 
-0.133543 0.09723 -1.32781 0.345844 0.784053 0.515415 
-0.132405 0.097312 -1.32895 0.360751 0.765576 0.532685 
-0.097418 0.097332 -1.32935 -0.584791 0.555787 0.590864 
-0.093644 0.096026 -1.31135 -0.757954 0.504151 0.41393 
-0.090904 0.09574 -1.3074 -0.61242 0.4906 0.619881 
-0.058885 0.095679 -1.30665 0.576847 0.624479 0.526567 
-0.057088 0.0968 -1.32212 0.969663 0.112123 0.217213 
-0.023006 0.100023 -1.36665 0.376501 0.773667 0.509595 
0.007991 0.102001 -1.39395 0.244561 0.455733 0.855861 
0.072696 0.104592 -1.4296 -0.915554 0.0636753 0.397122 
0.125977 0.102034 -1.39414 0.502972 -0.224519 0.834632 
0.128936 0.102302 -1.39782 0.676721 0.0857868 0.731224 
0.140073 0.102758 -1.40408 0.803239 0.363693 0.471736 
0.143436 0.103279 -1.41124 0.858839 0.140756 0.492527 
0.145071 0.103498 -1.41426 0.852485 0.0660982 0.518556 
-0.213081 0.084433 -1.16605 -0.646352 -0.208282 0.734062 
-0.211778 0.084351 -1.16492 -0.646352 -0.208282 0.734062 
-0.209132 0.08417 -1.16239 -0.667927 -0.21675 0.711964 
-0.20654 0.084007 -1.16012 -0.614751 -0.187268 0.766167 
-0.201728 0.083825 -1.1576 -0.409582 -0.0570711 0.910486 
-0.197074 0.083702 -1.15589 -0.302748 0.00854342 0.953032 
-0.192599 0.083651 -1.1552 -0.0851305 0.126982 0.988245 
-0.188206 0.083634 -1.15498 0.027169 0.218525 0.975453 
-0.183871 0.083643 -1.15512 0.123374 0.297342 0.946766 
-0.179591 0.083677 -1.15562 0.155079 0.349427 0.924041 
-0.175393 0.083753 -1.1567 0.225992 0.391968 0.89179 
-0.171223 0.083846 -1.15802 0.302546 0.429701 0.850778 
-0.167115 0.083975 -1.15984 0.374277 0.47555 0.796096 
-0.163016 0.084116 -1.16183 0.42582 0.574074 0.699369 
-0.159 0.084308 -1.16454 0.486869 0.637148 0.597496 
-0.155162 0.084609 -1.16876 0.530902 0.683771 0.5006 
-0.132199 0.095912 -1.32686 0.371401 0.770711 0.51775 
-0.131067 0.095997 -1.32806 0.391961 0.756892 0.522954 
-0.128723 0.096112 -1.32968 0.185059 0.584241 0.790199 
-0.126205 0.0961 -1.32952 0.200294 0.499323 0.842946 
-0.121241 0.096131 -1.32998 0.0819176 0.313884 0.945921 
-0.116247 0.09614 -1.33012 0.039354 0.240602 0.969826 
-0.11129 0.096182 -1.33072 0.096338 0.274884 0.956639 
-0.106309 0.096205 -1.33107 -0.154708 0.48959 0.858118 
-0.103817 0.096216 -1.33123 0.0131084 0.511056 0.859448 
-0.101322 0.096226 -1.33137 -0.0857267 0.479109 0.873559 
-0.098724 0.096134 -1.3301 -0.490194 0.596229 0.635784 
-0.093481 0.094627 -1.30905 -0.713737 0.451567 0.535413 
-0.092144 0.094519 -1.30755 -0.664382 0.451331 0.595732 
-0.089525 0.094352 -1.30522 -0.545356 0.448969 0.707823 
-0.08442 0.094137 -1.30222 -0.430628 0.38623 0.815712 
-0.079368 0.093958 -1.29974 -0.193524 0.205535 0.959325 
-0.074415 0.093881 -1.29867 0.0856768 0.032518 0.995792 
-0.069644 0.094037 -1.30087 0.327618 0.0123647 0.944729 
-0.064795 0.094105 -1.30184 0.285868 0.259088 0.922579 
-0.059973 0.094227 -1.30355 0.447525 0.465049 0.76384 
-0.0588 0.094311 -1.30473 0.938268 0.153128 0.310169 
-0.057912 0.094868 -1.31251 0.949731 0.105509 0.294752 
-0.057089 0.095557 -1.32214 0.962358 0.136456 0.235045 
-0.055959 0.095753 -1.32489 0.880997 0.220399 0.418651 
-0.053585 0.095963 -1.32784 0.763129 0.140619 0.630762 
-0.051191 0.096159 -1.33057 0.739273 0.100024 0.665935 
-0.046375 0.096555 -1.33612 0.750201 0.13219 0.647861 
-0.041515 0.096945 -1.34158 0.786891 0.233614 0.571164 
-0.036637 0.097394 -1.34785 0.810722 0.378167 0.4469 
-0.031717 0.097859 -1.35436 0.645901 0.469724 0.601806 
-0.026729 0.098249 -1.35982 0.622505 0.498623 0.603211 
-0.024229 0.098484 -1.36311 0.669741 0.491582 0.556592 
-0.021705 0.098662 -1.3656 0.599955 0.583145 0.547719 
-0.01662 0.09897 -1.36991 0.452711 0.538224 0.710892 
-0.011506 0.099303 -1.37457 0.652589 0.176459 0.736878 
-0.006361 0.099684 -1.37989 0.669062 0.244149 0.70196 
-0.001176 0.100159 -1.38654 0.701662 0.295965 0.648132 
0.004054 0.100552 -1.39202 0.114699 0.567782 0.815149 
0.006676 0.100618 -1.39295 0.15525 0.520799 0.839444 
0.007984 0.100606 -1.39278 0.168602 0.52409 0.834807 
0.071497 0.103457 -1.43254 -0.956933 -0.0508473 0.28582 
0.073879 0.103024 -1.42648 -0.903356 0.171373 0.393165 
0.076318 0.102696 -1.42189 -0.893841 0.169775 0.415 
0.078839 0.102499 -1.41913 -0.888581 0.0784396 0.451963 
0.083748 0.101978 -1.41184 -0.803379 0.019299 0.595155 
0.088562 0.101411 -1.4039 -0.662 0.189588 0.725129 
0.093588 0.101138 -1.40007 -0.51774 0.216913 0.827583 
0.09866 0.100939 -1.39727 -0.414049 0.250289 0.875168 
0.103768 0.100798 -1.39527 -0.404999 0.436575 0.803354 
0.106301 0.100711 -1.39406 -0.265708 0.522914 0.809914 
0.108871 0.100664 -1.39339 -0.090214 0.461334 0.882628 
0.111489 0.100661 -1.39334 -0.0608111 0.316294 0.94671 
0.1141 0.100653 -1.39322 -0.0359892 0.124506 0.991566 
0.119302 0.100621 -1.39275 0.126497 -0.0297891 0.99152 
0.124663 0.10072 -1.39412 0.444063 -0.378241 0.812245 
0.127544 0.100925 -1.39698 0.561492 -0.183092 0.806972 
0.130276 0.101006 -1.39809 0.436723 0.212751 0.874077 
0.135744 0.101163 -1.40026 0.451922 0.310731 0.836189 
0.13851 0.101259 -1.4016 0.565628 0.313586 0.762711 
0.139953 0.10135 -1.40287 0.71456 0.322526 0.620791 
0.141704 0.10166 -1.40718 0.902068 0.100012 0.419846 
0.145017 0.102129 -1.41373 0.863359 0.0725555 0.499346 
0.146591 0.1023 -1.41612 0.870433 0.0229663 0.491751 
-0.211833 0.083274 -1.16523 -0.639206 -0.20158 0.742146 
-0.21052 0.08319 -1.16403 -0.642595 -0.222636 0.733147 
-0.207867 0.083006 -1.16144 -0.666546 -0.229029 0.709409 
-0.154029 0.08349 -1.16852 0.53875 0.672993 0.506783 
-0.153071 0.083568 -1.16964 0.538141 0.677541 0.50134 
-0.130861 0.094598 -1.32595 0.489258 0.761301 0.425496 
-0.129738 0.094688 -1.32724 0.435754 0.7151 0.546581 
-0.127404 0.09481 -1.32897 0.291567 0.547927 0.784069 
-0.104998 0.094899 -1.33032 -0.167764 0.566073 0.807104 
-0.102502 0.094906 -1.33042 -0.0671709 0.683057 0.72727 
-0.101251 0.094905 -1.33042 -0.096342 0.681331 0.725607 
-0.09998 0.094887 -1.33017 -0.326098 0.720071 0.612501 
-0.098512 0.094679 -1.32723 -0.423111 0.718561 0.551949 
-0.094836 0.093516 -1.31077 -0.740939 0.457053 0.492049 
-0.093418 0.093331 -1.30816 -0.704503 0.410704 0.57879 
-0.090761 0.093131 -1.30534 -0.598672 0.41627 0.684332 
-0.058748 0.093001 -1.30358 0.765422 0.121874 0.631883 
-0.057841 0.093518 -1.3109 0.949855 0.0129364 0.312423 
-0.056996 0.094159 -1.31998 0.960877 0.181315 0.209383 
-0.054747 0.094565 -1.32573 0.769256 0.116308 0.628266 
-0.052383 0.094799 -1.32905 0.756599 0.0900624 0.647646 
0.005362 0.099233 -1.3919 0.1147 0.567781 0.815149 
0.00667 0.099232 -1.39188 0.1147 0.567781 0.815149 
0.071622 0.102288 -1.43507 -0.96661 -0.0438486 0.252471 
0.072727 0.101947 -1.43024 -0.950481 -0.00958382 0.310634 
0.104918 0.099331 -1.3931 -0.339245 0.34075 0.876814 
0.106203 0.099308 -1.39277 -0.172405 0.376156 0.910375 
0.107489 0.099286 -1.39245 -0.172405 0.376156 0.910375 
0.139889 0.099984 -1.40222 0.776646 0.249557 0.578397 
0.143373 0.100579 -1.41062 0.891368 0.073858 0.447222 
0.144973 0.100769 -1.41331 0.861083 0.0413223 0.506782 
0.14659 0.100967 -1.41611 0.883811 0.0447894 0.465694 
-0.21187 0.08219 -1.16543 -0.655946 -0.241713 0.715059 
-0.209292 0.08204 -1.1633 -0.658771 -0.245199 0.711265 
-0.206668 0.081869 -1.16085 -0.61872 -0.244658 0.746544 
-0.20419 0.081753 -1.1592 -0.545813 -0.228341 0.806194 
-0.15674 0.082078 -1.16406 0.495868 0.635233 0.59211 
-0.154794 0.08221 -1.16596 0.533705 0.656483 0.533094 
-0.152902 0.082374 -1.16833 0.538749 0.672994 0.506783 
-0.151941 0.08245 -1.16943 0.535708 0.676088 0.505888 
-0.129534 0.093292 -1.32514 0.522216 0.754243 0.398004 
-0.128414 0.093384 -1.32647 0.459832 0.723425 0.514986 
-0.126109 0.093526 -1.32851 0.396151 0.61544 0.681394 
-0.123666 0.093568 -1.32913 0.35542 0.41093 0.839532 
-0.113714 0.09361 -1.32977 0.0156992 0.141748 0.989778 
-0.111227 0.093623 -1.32996 0.0167631 0.22609 0.973962 
-0.108755 0.093649 -1.33034 -0.125642 0.224243 0.9664 
-0.106216 0.093617 -1.32989 -0.254826 0.514738 0.818601 
-0.104915 0.093573 -1.32926 -0.167764 0.566073 0.807104 
-0.103621 0.093533 -1.3287 -0.164589 0.640735 0.749913 
-0.102371 0.093533 -1.3287 -0.0525017 0.652399 0.756055 
-0.094764 0.092212 -1.30977 -0.744074 0.449349 0.494408 
-0.092029 0.091942 -1.3059 -0.666923 0.390278 0.634741 
-0.0894 0.091766 -1.30339 -0.519453 0.389746 0.760439 
-0.086864 0.091678 -1.30213 -0.487816 0.366629 0.792224 
-0.067195 0.091586 -1.30086 0.146853 0.141074 0.979047 
-0.062339 0.091644 -1.30172 0.321659 0.0833936 0.943176 
-0.059928 0.091703 -1.30256 0.691054 -0.116661 0.713327 
-0.058749 0.091776 -1.30361 0.78425 -0.252539 0.566724 
-0.057824 0.092257 -1.31052 0.894367 0.077476 0.440573 
-0.055803 0.092998 -1.32116 0.921235 0.284058 0.265776 
-0.054748 0.093318 -1.32575 0.784282 0.077415 0.615555 
-0.053568 0.093434 -1.32742 0.780832 0.0584825 0.621998 
-0.051172 0.09362 -1.3301 0.734079 0.0643711 0.676006 
-0.048771 0.093815 -1.3329 0.748255 0.0915482 0.657064 
-0.024202 0.095812 -1.36159 0.70695 0.324486 0.628434 
0.001433 0.097674 -1.38831 0.531785 0.533576 0.657648 
0.00405 0.097842 -1.39073 0.254091 0.608665 0.751641 
0.005358 0.097846 -1.39078 0.254091 0.608665 0.751641 
0.070445 0.101185 -1.43862 -0.954203 0.0806277 0.288092 
0.071667 0.101003 -1.436 -0.959959 0.0796876 0.268566 
0.073855 0.100307 -1.42601 -0.925224 0.0526789 0.375746 
0.076291 0.099986 -1.4214 -0.871124 0.122554 0.475524 
0.101132 0.098159 -1.39511 -0.432524 0.339336 0.835329 
0.103609 0.098021 -1.39312 -0.389108 0.315677 0.865415 
0.106204 0.097998 -1.39277 -0.243724 0.228768 0.942478 
0.107448 0.097939 -1.39192 -0.147549 0.20163 0.968284 
0.108753 0.097935 -1.39187 -0.129586 0.20181 0.970814 
0.11138 0.097944 -1.39198 0.0337206 0.265582 0.963498 
0.116756 0.098061 -1.39365 0.245257 0.08997 0.965274 
0.119423 0.098099 -1.39419 0.193396 -0.144235 0.970461 
0.122137 0.098173 -1.39524 0.333375 -0.22198 0.91629 
0.124834 0.098231 -1.39605 0.298356 -0.321422 0.898705 
0.127515 0.098274 -1.39666 0.461394 0.00650707 0.887172 
0.130179 0.098302 -1.39705 0.210327 0.194971 0.957992 
0.132881 0.098357 -1.39783 0.321006 0.190748 0.927669 
0.138377 0.098527 -1.40025 0.680397 0.0346765 0.732023 
0.139848 0.098636 -1.4018 0.771583 0.252858 0.583715 
0.141679 0.098995 -1.40695 0.928666 0.0550395 0.36681 
0.145129 0.099546 -1.41485 0.884609 0.0654611 0.461716 
0.146585 0.099631 -1.41607 0.884609 0.0654611 0.461715 
-0.211913 0.081107 -1.16567 -0.654267 -0.242834 0.716217 
-0.210664 0.081049 -1.16483 -0.633614 -0.267938 0.72577 
-0.208055 0.080889 -1.16251 -0.662577 -0.248746 0.706482 
-0.151756 0.081248 -1.16798 0.521136 0.683424 0.511224 
-0.150788 0.08132 -1.16903 0.533526 0.688944 0.490618 
-0.128192 0.091976 -1.32415 0.572366 0.742494 0.347993 
-0.127139 0.092116 -1.32619 0.532613 0.688808 0.4918 
-0.109967 0.092364 -1.32987 0.0167153 0.295998 0.955042 
-0.107435 0.092338 -1.32949 -0.229311 0.457842 0.858951 
-0.106119 0.092281 -1.32868 -0.242125 0.476973 0.844909 
-0.095998 0.090981 -1.3098 -0.567626 0.499388 0.654532 
-0.061131 0.090444 -1.30209 0.644144 -0.560424 0.52058 
-0.05995 0.09051 -1.30306 0.642827 -0.572834 0.508561 
-0.058844 0.090695 -1.30575 0.873867 -0.399328 0.277298 
-0.056724 0.091236 -1.31362 0.948188 0.190849 0.253999 
-0.054748 0.092071 -1.32576 0.776927 0.0618266 0.626548 
-0.052356 0.09225 -1.32838 0.757326 0.0541491 0.650788 
0.005352 0.096428 -1.3892 0.254091 0.608665 0.751641 
0.069196 0.099981 -1.4408 -0.920639 0.176185 0.3484 
0.070434 0.099816 -1.4384 -0.920639 0.176185 0.3484 
0.07274 0.099274 -1.43051 -0.96179 0.0363029 0.27137 
0.107484 0.096661 -1.3924 -0.17396 0.107086 0.978913 
0.139844 0.097314 -1.40177 0.822364 0.0439965 0.567258 
0.146737 0.098401 -1.41756 0.884835 0.1261 0.448515 
-0.210734 0.079977 -1.16523 -0.650044 -0.26834 0.710941 
-0.20945 0.079907 -1.16419 -0.648506 -0.282739 0.706752 
-0.20683 0.079743 -1.16178 -0.621681 -0.251352 0.741845 
-0.201837 0.079501 -1.15824 -0.475593 -0.150107 0.866764 
-0.197078 0.079343 -1.15593 -0.370105 -0.11359 0.922019 
-0.192505 0.079254 -1.15464 -0.222335 -0.0165249 0.97483 
-0.18804 0.079207 -1.15396 -0.0462858 0.119703 0.99173 
-0.183697 0.07921 -1.15403 0.0670236 0.176875 0.981949 
-0.179422 0.079243 -1.15453 0.11158 0.227304 0.96741 
-0.17518 0.079293 -1.15529 0.182976 0.275898 0.94361 
-0.170978 0.079364 -1.15636 0.248608 0.335992 0.908462 
-0.166822 0.079461 -1.1578 0.295138 0.387878 0.873181 
-0.162663 0.079561 -1.15929 0.364109 0.453112 0.813704 
-0.158541 0.079685 -1.16115 0.427073 0.514274 0.743728 
-0.154516 0.079867 -1.16385 0.489302 0.63013 0.602926 
-0.152535 0.079978 -1.1655 0.51239 0.649135 0.562211 
-0.150606 0.080121 -1.16761 0.519325 0.691097 0.50268 
-0.149649 0.080197 -1.16874 0.539675 0.69437 0.476027 
-0.148691 0.080274 -1.16988 0.558416 0.688526 0.462713 
-0.12791 0.090529 -1.32121 0.687814 0.637468 0.347198 
-0.126885 0.090686 -1.32352 0.643346 0.692776 0.325832 
-0.12583 0.090823 -1.32555 0.638319 0.634121 0.436395 
-0.123589 0.091009 -1.32831 0.56929 0.416221 0.708992 
-0.12117 0.09107 -1.32921 0.341845 0.310323 0.887041 
-0.116224 0.091113 -1.32987 -0.0813198 0.110638 0.990528 
-0.113683 0.091082 -1.32942 -0.253588 0.220362 0.941878 
-0.111199 0.091096 -1.32964 0.05074 0.370125 0.927595 
-0.109948 0.091096 -1.32964 0.00648887 0.449031 0.893493 
-0.108677 0.091079 -1.3294 -0.126168 0.389454 0.912363 
-0.095877 0.089635 -1.30814 -0.494079 0.504634 0.707976 
-0.09458 0.089572 -1.30721 -0.612094 0.402719 0.680558 
-0.089333 0.089244 -1.3024 -0.538821 0.271066 0.797618 
-0.084262 0.089066 -1.29979 -0.322576 0.176788 0.929888 
-0.079308 0.088996 -1.29876 -0.166633 0.104179 0.9805 
-0.074469 0.089053 -1.29963 0.130873 0.0170014 0.991253 
-0.069618 0.089105 -1.3004 0.105967 0.077991 0.991306 
-0.067173 0.089108 -1.30045 0.320254 0.017039 0.947179 
-0.064741 0.089129 -1.30077 0.401262 -0.00704065 0.915936 
-0.062357 0.08922 -1.30211 0.587977 -0.559962 0.583718 
