ply
format ascii 1.0
comment VCGLIB generated
element vertex 898
property float x
property float y
property float z
property float nx
property float ny
property float nz
element face 0
property list uchar int vertex_indices
end_header
31.9237 11.4185 -631.639 0.785092 4.46217 4.3506 
-26.1763 -44.4973 -690.523 2.10872 -0.617061 -5.8864 
41.0237 -12.9973 -676.195 0.90976 2.16844 -5.82061 
-101.079 -67.6095 -688.953 -4.23243 -1.71492 -4.13803 
-74.4763 -8.92609 -683.282 2.05306 2.81251 -5.22938 
12.3237 6.68531 -619.499 1.67194 5.36485 2.81055 
-59.6646 -21.3973 -608.451 -6.04547 1.00291 1.37922 
-38.7763 -53.5973 -692.808 1.68695 -1.4165 -5.88423 
-53.5015 -12.2575 -600.71 -3.42738 2.41416 4.64414 
-38.7763 22.1142 -639.251 -1.05176 6.08507 1.14948 
-98.9763 -50.7973 -692.874 -1.99456 0.76612 -5.85781 
-100.749 -21.3973 -684.051 -5.37881 0.2801 3.23361 
-100.959 -5.29731 -661.651 -6.26637 0.103146 -0.433542 
158.77 -17.8973 -656.051 6.14835 0.804758 -1.01236 
-101.831 -60.5973 -645.551 -6.26927 0.119308 -0.396803 
-102.306 -63.3973 -638.551 -6.26153 -0.196765 -0.466402 
2.52367 -63.5136 -673.646 1.33209 -3.8428 -4.78902 
80.2237 9.75705 -648.351 -1.041 6.00772 -1.47433 
161.427 -31.171 -645.682 6.24485 0.642193 -0.18625 
-94.0763 -48.6973 -692.317 0.960158 1.76899 -5.94532 
41.7237 -40.9973 -675.211 0.404963 -1.48223 -6.08796 
31.9237 -59.6175 -616.851 -0.0660478 -5.67365 2.6848 
-96.8763 -50.7973 -693.066 0.193363 0.992413 -6.19323 
-9.38153 -3.89978 -675.647 1.9287 3.87249 -4.55461 
-35.9763 -50.0973 -692.788 1.72499 -1.2188 -5.91645 
35.4237 11.1183 -632.251 1.30766 4.49912 4.18565 
15.8237 -52.8973 -676.183 1.05339 -1.9599 -5.87538 
44.5484 7.3163 -632.21 2.53672 4.81253 3.13998 
-84.2763 -27.6973 -689.142 2.43887 -1.67704 -5.54221 
-35.2763 -40.9973 -591.225 -2.73041 -0.615998 5.618 
-10.8348 -15.9385 -682.627 2.17308 1.82391 -5.60466 
-50.6763 -47.2973 -692.836 -4.35922 -0.917552 -4.43047 
-99.8044 -8.79731 -687.551 -5.96931 -0.293135 -1.93133 
-102.476 -29.5588 -609.151 2.57233 -5.30793 2.15139 
158.41 -17.8973 -658.151 6.09359 0.90616 -1.23196 
3.22367 10.3968 -612.651 3.22218 4.95648 2.12662 
64.1237 -8.94711 -671.34 -0.557031 3.81961 -4.93152 
89.2737 -65.4877 -648.301 1.0553 -5.76545 -2.26246 
-6.57633 -8.66354 -677.831 2.08128 3.04729 -5.08451 
-32.4763 -43.7973 -692.651 1.77446 -0.588102 -5.99677 
48.0237 -28.3973 -677.456 -0.198148 -0.429311 -6.26467 
-49.9919 -61.3691 -688.968 -4.39557 -1.90396 -4.06189 
47.3377 -59.2101 -625.896 3.58819 -4.65332 2.16611 
158.148 -31.1973 -612.651 6.15684 -0.893518 0.877499 
129.945 0.965481 -612.68 -5.71431 1.38574 2.14314 
13.0237 -40.9973 -678.969 1.00178 -0.445637 -6.18661 
-32.4763 -40.9973 -692.805 1.7757 -0.228771 -6.02185 
-103.176 -22.5856 -658.151 -0.411 1.28326 -0.54102 
126.214 10.8027 -635.751 -5.87354 1.88837 0.267806 
-32.4763 -37.4973 -692.887 1.72413 0.0472411 -6.04063 
124.324 -49.7248 -642.051 2.8989 -5.49482 -0.938462 
-70.8561 -18.5973 -684.111 2.73986 -0.125287 -5.65005 
135.428 10.8664 -667.301 -3.90162 2.88175 -3.97832 
-22.6763 -53.5973 -687.307 2.13117 -1.92978 -5.5868 
-14.2477 -71.8025 -670.06 1.86452 -5.18339 -3.02194 
152.187 -5.29731 -612.651 5.63526 1.27828 2.45716 
-32.4763 -31.1973 -692.712 1.66331 0.294849 -6.05168 
41.5817 -79.3345 -639.251 4.38948 -3.91455 2.20932 
-31.7763 -60.5973 -688.01 2.01034 -2.46955 -5.41584 
-67.3581 -43.7635 -681.265 1.31624 2.25819 -5.71117 
-13.5655 -12.977 -682.655 2.13622 2.13867 -5.50768 
-3.07633 -50.7973 -593.196 1.94819 -0.761018 5.91729 
-102.051 -31.1973 -687.551 -6.25279 0.290568 -0.455779 
-104.663 -39.5973 -635.051 -6.22492 -0.492031 -0.491613 
112.406 -38.162 -606.365 3.60555 -3.31434 3.89338 
-50.4043 0.302696 -680.551 -5.00819 2.68595 -2.6715 
-52.5522 -70.3973 -678.451 -5.25983 -2.50933 -2.34226 
73.2237 -17.7211 -675.016 -1.76863 2.0945 -5.65341 
57.1237 5.81833 -640.651 -0.940147 6.11598 1.0014 
-99.6763 -31.1973 -692.683 -1.06498 -2.27543 -5.7217 
143.924 -24.8973 -675.101 -1.06076 -0.0765124 -6.19174 
-96.8763 -30.4973 -692.791 0.962285 -2.42302 -5.71533 
-102.392 -60.5973 -687.551 -6.1447 -0.183362 -1.29271 
78.8237 2.63055 -663.051 -1.30138 5.32291 -3.0353 
121.524 -27.6973 -667.014 3.11065 -0.267585 -5.45188 
-35.2763 -83.1674 -638.551 2.0191 -5.91851 0.609161 
138.324 -11.5973 -673.176 -3.39743 -0.28194 -5.2677 
128.538 -48.0024 -632.188 2.20405 -5.81234 0.913145 
-35.9763 -28.3973 -693.369 1.4208 0.575511 -6.09321 
-12.8665 -57.8009 -681.953 1.92788 -2.56765 -5.40033 
-82.8882 -83.6525 -612.705 5.4745 -2.83714 1.19798 
118.024 -12.2973 -610.36 2.24121 2.47882 5.31836 
-93.3763 -27.6973 -692.845 2.00233 -1.36151 -5.79633 
-14.9763 -10.8973 -682.29 2.07402 2.46243 -5.39544 
-87.0763 -11.5973 -690.528 2.07993 2.22822 -5.49019 
-108.776 -27.5208 -603.551 -3.52856 -4.73599 1.7182 
-35.9763 -24.8973 -692.953 1.37612 0.825819 -6.07473 
154.871 -44.4973 -605.651 5.42583 -0.721777 3.07653 
25.6237 -48.6973 -675.983 0.687537 -1.78253 -5.9842 
-38.7763 -18.5973 -692.367 1.31705 1.33855 -5.9959 
58.3853 5.95501 -638.551 -2.31988 5.82082 0.453078 
0.423668 8.00269 -608.122 2.91396 2.73744 4.7442 
-102.637 9.50082 -660.951 -2.82237 5.19241 -2.09879 
152.711 9.40269 -645.551 5.7501 2.49613 0.416181 
-101.668 -24.1973 -693.151 -5.37151 -0.779501 -1.70996 
-35.9763 -5.99731 -687.185 1.36186 2.88813 -5.40983 
138.324 12.9891 -667.345 -1.4377 4.47387 -4.14888 
-61.1763 -37.4973 -678.749 -1.52243 1.00969 -5.9862 
70.4237 -24.8973 -675.915 -0.720004 -0.0660807 -6.24099 
34.7237 -43.7973 -604.497 2.97157 -2.11626 5.09358 
-50.6922 -21.995 -692.467 -4.51458 1.35634 -4.14729 
-10.0763 28.4855 -645.551 0.30539 6.27536 -0.0568624 
-104.69 -22.0973 -618.951 -6.22629 0.527645 -0.648599 
-103.007 -40.9973 -667.951 -6.25788 -0.368987 -0.306892 
149.248 15.7027 -650.451 5.13649 3.56086 -0.623094 
-106.599 -47.937 -620.205 -3.28006 -3.93126 -3.63807 
134.921 -31.1973 -606.492 -5.18202 -0.363781 3.53159 
-70.2763 -4.5973 -678.775 1.52605 3.89587 -4.68624 
-84.3142 -12.4057 -689.633 2.62437 1.88503 -5.38581 
-47.892 -76.0253 -680.566 -3.08037 -4.06107 -3.61341 
-77.2763 -83.9679 -655.351 1.98356 -5.76715 -1.51111 
-22.5216 24.0814 -632.329 -1.67284 5.83946 1.60607 
-83.5763 -64.0973 -688.768 2.54703 -1.62358 -5.50791 
154.386 -51.469 -668.586 3.20329 -4.0548 -3.55156 
-100.87 -31.1973 -681.251 -2.41242 0.697765 1.88751 
-87.0763 -2.62937 -683.913 1.765 4.38237 -4.1414 
60.7624 5.13623 -625.951 -2.66331 5.6206 0.890344 
-19.1763 22.1584 -623.851 -1.33176 5.73699 2.18419 
-38.7763 -22.0973 -693.075 1.23269 1.08634 -6.0628 
-48.5763 -67.4335 -602.248 0.755864 -3.22823 5.3343 
126.424 -48.9997 -639.251 2.80136 -5.59349 -0.583871 
-96.8763 -69.6973 -689.223 -0.23737 -3.18404 -5.40835 
-103.131 -5.29731 -638.551 -6.2566 0.154067 -0.534404 
-61.1763 -79.3618 -632.251 1.64087 -5.84236 1.61602 
-21.9763 -11.5973 -685.24 2.13384 2.36609 -5.41484 
146.744 17.1281 -639.136 4.73631 3.80041 1.61099 
-23.3897 -70.4439 -596.531 -4.61314 -2.61553 3.33202 
-90.5763 -21.3973 -692.894 1.93493 -0.581584 -5.94776 
154.419 -11.6754 -667.942 5.56793 0.620845 -2.84416 
-35.9763 -81.7977 -664.451 1.94186 -5.7585 -1.59344 
134.542 -47.2973 -648.351 -5.06375 -3.41005 -1.44841 
-59.774 -53.5723 -609.865 -6.10831 -1.13362 0.938287 
-23.4257 -43.7973 -689.633 2.17412 -0.484999 -5.87436 
123.624 -49.1986 -627.351 2.83928 -5.30035 1.82239 
132.196 19.1136 -626.651 -2.87669 4.99881 2.4755 
-87.019 10.1813 -609.851 4.89212 3.79151 1.05131 
-90.5763 13.3482 -609.851 3.16562 5.30405 1.14145 
5.97712 -89.987 -658.088 1.33448 -5.82588 -1.93769 
-42.2763 -18.5973 -693.057 1.19882 1.19949 -6.04952 
19.3237 -73.1973 -631.79 1.03721 -3.9749 4.66096 
-100.949 -50.7973 -691.65 -4.22639 0.474285 -4.57928 
-70.9763 -5.82431 -679.98 1.78423 3.53749 -4.87574 
86.5237 10.5246 -625.951 -0.0976893 5.9175 2.10807 
-102.429 -44.4973 -687.386 -6.09124 0.136545 -1.53224 
-55.6398 -37.4973 -595.803 -3.53096 -0.0649474 5.14715 
-22.6763 -69.6973 -677.401 2.04915 -4.34133 -4.05364 
-12.9161 4.49065 -667.921 1.40102 4.73066 -3.88383 
64.1872 -33.2885 -594.456 -1.42095 -3.36924 5.05214 
-29.7043 -8.81691 -686.833 1.81567 2.56082 -5.43941 
-100.693 -21.3973 -671.451 -6.27613 -0.0530757 -0.272186 
28.4237 -22.0973 -676.453 0.144104 1.06297 -6.18843 
22.9646 18.5408 -656.12 2.70827 4.95968 -2.74153 
155.492 -35.3973 -602.851 5.8405 -1.72254 1.5284 
-90.5763 -18.5973 -693.036 1.81372 0.0814809 -6.00667 
-42.2763 1.32895 -612.651 1.97152 4.53162 3.87925 
144.624 -5.29731 -674.86 0.453814 0.180623 -6.25989 
42.4213 -87.9018 -651.155 -3.78995 -4.32574 -2.34386 
-90.5763 -15.0973 -692.689 1.56075 1.23128 -5.95662 
40.3237 12.6952 -639.251 2.85346 5.45985 1.23249 
47.5118 -9.42583 -672.908 2.47251 3.58525 -4.50671 
-102.391 -69.6973 -684.051 -6.12679 -0.671255 -1.18872 
-70.9299 0.328896 -673.569 1.38978 4.97496 -3.57491 
-61.1763 -71.9473 -620.93 1.89437 -3.75047 4.67129 
-42.2763 -65.4973 -689.159 1.61032 -2.91666 -5.32641 
-3.77633 23.7145 -664.451 -0.00590932 5.53066 -2.97008 
-110.897 -8.79731 -593.836 -6.12335 -0.0320136 -1.25296 
-93.3763 -64.0973 -691.59 0.483005 -1.81878 -5.99466 
54.3237 -6.08315 -667.844 -0.885846 4.80263 -3.93976 
-29.5408 -54.2635 -593.065 -1.32701 -2.43055 5.63722 
-53.8754 10.1027 -629.451 -4.54688 4.15739 1.22222 
-47.8763 -15.7973 -692.711 -2.29479 1.67002 -5.55925 
45.2237 8.24954 -651.851 2.04176 5.2991 -2.68532 
-54.3248 -63.3973 -680.551 -5.47468 -1.76295 -2.52766 
86.5237 5.8776 -617.588 0.70076 5.17462 3.48954 
-35.9763 -59.8973 -689.797 1.87775 -2.32001 -5.52867 
-86.3763 -21.3973 -691.395 2.39164 -0.49066 -5.78709 
63.4237 5.6853 -649.051 -1.15271 6.03521 -1.3039 
-45.0763 -15.7973 -692.867 0.736392 1.57826 -6.03408 
-80.2241 5.18919 -668.62 1.03147 5.69119 -2.45446 
-74.4763 -43.7973 -615.737 1.15405 3.70659 4.93956 
31.9237 -8.71844 -670.825 -1.17874 4.17911 -4.50686 
-80.0763 11.9375 -645.551 1.3924 6.0651 -0.837819 
-21.9763 -71.0161 -675.547 1.9992 -4.63876 -3.73406 
-25.4763 -76.8361 -667.951 1.85114 -5.52435 -2.3459 
-89.8763 -11.5973 -691.436 1.59757 2.21242 -5.65958 
-0.814461 25.6282 -645.551 3.71157 5.06183 0.191043 
-77.323 -76.6779 -674.885 2.13275 -5.03388 -3.09662 
90.0237 -9.56479 -674.193 0.628424 4.11901 -4.69496 
90.0237 -65.0777 -649.051 0.895991 -5.79692 -2.24717 
146.317 10.1027 -619.651 4.76784 4.01349 0.798449 
-96.8763 -12.2973 -692.991 0.0369982 2.13179 -5.84637 
-42.3101 20.637 -648.36 -1.14881 2.53627 -5.59702 
-50.1171 -59.1973 -689.805 -4.42054 -1.79316 -4.08575 
132.761 19.1654 -656.642 -4.33731 3.70532 -2.56844 
-101.778 -74.5948 -671.44 -4.54125 3.97704 1.74109 
-100.376 -60.5973 -691.438 -3.41828 -1.10528 -5.14385 
25.6237 -31.1973 -677.636 0.243869 0.422751 -6.26411 
-100.376 -70.3973 -687.913 -2.60056 -3.29293 -4.65979 
125.02 -47.994 -625.955 2.62164 -5.30081 2.11883 
-96.8763 -59.8973 -692.712 -0.069536 -1.19405 -6.16797 
150.469 4.50269 -619.651 5.27513 3.2967 0.883709 
-15.6763 -17.8973 -684.953 2.15335 1.50462 -5.7069 
28.4237 -28.3973 -677.277 0.241473 0.66693 -6.24257 
-65.3337 -78.8165 -626.582 2.30881 -5.11999 2.81515 
-81.4763 -21.3973 -689.243 2.54186 -0.494586 -5.72403 
-94.7195 15.7193 -622.451 1.61062 6.06803 -0.168027 
-93.3763 -59.8973 -692.643 1.0603 -1.16431 -6.08101 
6.02367 22.4581 -663.751 1.74858 4.93912 -3.45252 
-75.1736 -82.2994 -623.145 3.19147 -4.46009 3.06318 
-68.0479 -30.5179 -616.841 0.856374 -2.56791 5.669 
-102.477 -57.1199 -687.552 -6.11089 -0.193854 -1.42874 
-61.1763 -63.3973 -615.89 0.267177 -2.25369 5.8544 
-86.698 -1.79731 -596.551 5.18303 1.16053 3.34672 
25.6237 -1.87653 -665.791 0.26432 3.81089 -4.98812 
-16.2948 -78.0992 -655.358 0.438373 -6.04293 -1.64463 
-98.9748 -59.8949 -692.45 -2.43644 -1.15673 -5.59556 
-100.586 -18.5973 -674.251 -6.2701 0.0202144 -0.385261 
-45.0763 -66.1973 -689.389 0.446385 -2.93391 -5.52677 
6.89103 20.656 -665.192 2.29651 3.38112 -4.74192 
-100.376 -74.065 -684.891 -2.54371 -3.70253 -4.39171 
57.8123 -60.6046 -622.386 -3.23516 -5.27169 1.08248 
38.2237 -43.7973 -606.829 2.29191 -1.73361 5.58427 
-91.2763 -59.8973 -692.324 1.05825 -0.979843 -6.11361 
-101.813 -70.3404 -678.319 -4.7862 3.05582 2.65942 
-80.0763 -84.319 -621.828 1.17316 -4.39732 4.3223 
-49.2855 -8.05373 -688.262 -4.66824 1.95213 -3.71652 
19.3237 -64.2053 -668.734 0.933661 -3.80349 -4.9129 
-50.4315 -72.4973 -680.551 -4.89471 -2.85883 -2.70961 
-21.9763 2.30317 -675.544 2.0381 4.37006 -4.02793 
-90.5668 -57.2044 -692.454 1.53575 -0.290531 -6.08314 
158.972 -15.0973 -632.251 6.17264 1.12736 0.313911 
-39.4874 -55.6871 -692.445 1.65895 -1.78228 -5.79197 
92.9639 -57.8145 -616.121 1.41805 -5.33418 3.00104 
-55.5925 -70.4656 -671.482 -5.09586 -2.58331 -2.59009 
-10.0763 -70.0355 -670.751 1.38938 -5.00705 -3.53232 
-92.6763 -49.3973 -692.242 1.26721 1.53117 -5.95942 
-83.5763 -40.1334 -684.839 2.17018 2.86036 -5.15121 
86.5237 -21.3973 -677.339 0.210344 1.22544 -6.15832 
-39.3427 -62.7471 -689.675 1.83334 -2.6094 -5.40964 
13.0237 -8.03352 -671.493 0.749719 3.42256 -5.21546 
6.02367 -91.9759 -648.351 1.64464 -6.05542 -0.194449 
-100.36 -8.79731 -683.945 -6.15939 0.493894 -1.04239 
-48.5763 -11.5973 -690.684 -3.86423 1.94092 -4.54107 
150.925 -37.5143 -674.252 2.1093 -0.173799 -5.91377 
105.435 -56.4002 -658.157 2.70712 -5.152 -2.35995 
-70.2763 8.9121 -638.551 2.04649 5.87098 0.904476 
159.512 -44.4973 -664.451 5.99894 -0.394694 -1.8176 
-9.37633 -34.6973 -684.916 2.11553 0.166808 -5.91355 
118.724 -46.537 -660.168 0.985291 -4.97145 -3.69733 
-90.5888 -54.423 -692.448 1.68713 0.352878 -6.04037 
-3.9407 -25.5973 -591.695 1.52813 1.44067 5.92169 
-50.5471 -57.0973 -690.202 -4.56061 -1.64599 -3.99274 
-15.6763 -8.79731 -591.178 -2.14019 -0.169786 5.90398 
15.8237 -57.2512 -674.335 1.16561 -2.8693 -5.4655 
-103.102 -34.6973 -667.951 -6.18517 0.0318305 -0.983117 
18.6237 19.0219 -639.951 0.906365 5.65725 2.57566 
84.4237 -0.96513 -605.495 2.69931 4.39689 3.58029 
54.3237 -59.7582 -664.291 2.41429 -4.31434 -3.87597 
-18.4763 16.4027 -614.349 -2.07738 3.03369 5.09307 
-36.7264 -52.7765 -692.438 1.66634 -1.32051 -5.91108 
-12.8763 -5.41806 -678.369 2.10231 3.39835 -4.84719 
-26.1783 -22.1006 -689.65 2.03606 1.13378 -5.83429 
83.0237 -15.0973 -676.235 -0.0636415 0.751148 -6.23659 
-93.3763 -44.4283 -690.39 1.0417 2.96472 -5.43392 
13.0237 -47.2973 -678.078 0.902822 -1.27678 -6.08513 
-84.9763 -88.254 -619.651 4.38997 -4.45463 0.563111 
57.8237 -2.49731 -664.765 0.637621 3.86615 -4.90967 
-96.8763 15.851 -628.751 1.2271 6.14995 -0.372628 
-56.5888 -0.397308 -617.551 -5.4017 2.58573 1.89932 
67.6237 -62.2854 -613.351 -1.26361 -5.7307 2.23966 
-99.7412 -18.5973 -690.351 -6.1655 0.879836 -0.194279 
-55.6391 -44.4973 -684.9 -5.8286 -0.325385 -2.32143 
-93.3763 -50.7973 -692.714 1.10787 1.11756 -6.07816 
-94.7763 -87.9415 -601.383 1.04607 -5.16584 3.41438 
-102.157 -66.8973 -686.851 -6.0547 -0.591693 -1.56545 
-69.5763 -4.5973 -618.024 2.68966 3.00808 4.8157 
-99.8392 -60.5973 -671.451 -6.2215 -0.414031 -0.769116 
122.882 -45.1641 -658.744 3.41446 -4.46305 -2.80646 
-77.8974 -72.5199 -680.574 2.32713 -4.10253 -4.14913 
-19.8763 -50.7973 -687.109 2.22526 -1.4714 -5.68655 
-99.7994 4.50774 -674.961 -0.464139 5.62417 -2.76211 
-64.7151 -11.7298 -680.537 2.15071 1.28904 -5.75896 
136.325 -46.4364 -614.051 -5.07331 -3.09576 2.02499 
19.3237 -37.4973 -678.274 0.593591 -0.0277206 -6.25494 
154.323 -18.0503 -602.851 4.77579 3.27175 2.43275 
-0.429096 -2.52919 -670.723 1.62751 4.0572 -4.51215 
118.724 -5.37047 -616.249 1.86314 4.81671 3.57753 
-91.2763 -51.4973 -692.34 1.64588 0.983249 -5.98022 
0.423668 -68.3986 -669.468 1.2695 -4.69257 -3.97963 
-54.9825 7.47614 -658.151 -5.28027 3.16478 -1.2352 
-57.6763 -4.44637 -675.097 0.605731 4.25882 -4.57728 
25.6237 -22.0973 -676.5 0.1101 1.04985 -6.19378 
-41.5763 12.1579 -668.557 1.00271 5.58222 -2.70382 
20.7237 -84.7509 -660.251 2.02344 -5.35549 -2.58557 
-50.5777 -50.0973 -692.351 -4.4266 -1.02086 -4.32866 
49.8058 -36.0973 -604.951 -4.88295 -2.65155 2.9303 
-96.8763 -47.9973 -692.333 0.258527 2.13492 -5.90284 
-93.3763 -68.9973 -689.46 0.60195 -3.15552 -5.39874 
-19.1492 16.9732 -658.102 -5.20425 2.146 -2.78999 
-15.6987 25.5285 -651.19 -2.98711 5.18141 -1.92074 
-23.3763 -5.99731 -682.933 2.00441 3.11521 -5.07477 
96.3237 -47.9973 -671.807 1.26239 -3.36617 -5.15118 
158.818 -20.6973 -618.251 6.20531 0.742673 0.633522 
-52.8607 -40.9973 -691.172 -5.23553 -0.272544 -3.46079 
136.99 -12.2973 -672.096 -4.11343 -0.547619 -4.70322 
-100.481 -15.0973 -674.251 -6.26114 0.240367 -0.455686 
-13.5763 -3.29225 -676.968 2.00437 3.94325 -4.46206 
48.0876 -70.4794 -659.008 4.16131 -3.22366 -3.42925 
159.965 -21.3973 -632.251 6.22492 0.76978 0.340558 
-94.0765 -29.7972 -692.451 1.63455 -2.17067 -5.66187 
-76.5488 -1.76019 -614.698 3.89339 2.84773 4.02565 
-71.6763 -72.3766 -676.917 2.56338 -4.24568 -3.85646 
-58.3196 -40.9973 -599.461 -5.61127 -0.228743 2.81771 
-84.1959 -50.7973 -689.69 2.57237 0.813032 -5.67366 
132.733 3.8027 -666.537 -5.20865 0.292378 -3.49068 
116.682 -48.0551 -618.815 3.9609 -3.72762 3.11083 
-73.0763 -8.09731 -682.282 1.97114 2.93553 -5.19332 
-102.476 7.02498 -667.951 -2.77656 5.21038 -2.10046 
-101.647 -27.6973 -692.451 -5.74694 -0.385499 -1.70678 
-31.7763 -50.7973 -691.353 1.93531 -1.39902 -5.81159 
-87.1242 5.19884 -671.442 0.898366 5.69778 -2.48699 
-49.2763 -15.0973 -691.427 -4.24323 1.68039 -4.31353 
-67.4763 -34.5299 -619.047 0.0333263 -2.93605 5.55306 
-47.8763 13.1718 -667.251 -1.54829 5.38906 -2.80303 
-22.6763 -44.4973 -589.883 -0.148615 -1.48566 6.10307 
-3.90972 -43.7973 -682.608 1.88788 -0.691295 -5.95247 
15.8237 -73.5789 -628.751 2.27769 -5.75434 1.08452 
136.828 -8.79731 -672.23 -3.99551 -0.357684 -4.8343 
11.1676 -78.7973 -620.351 5.75687 -2.31958 0.95252 
3.30424 -69.5944 -602.851 4.86224 3.8021 1.00082 
-3.77633 -65.3996 -591.677 0.878091 -1.63811 6.00046 
-90.5763 -24.8973 -692.328 2.03925 -1.09875 -5.84024 
-90.5763 -31.1973 -690.597 2.06774 -2.37186 -5.43662 
-39.4763 -60.7052 -599.26 -2.46199 -3.60707 4.51552 
-16.3763 -63.3973 -680.088 1.95254 -3.37016 -4.92979 
-75.8763 -25.5973 -685.761 2.8758 -1.07264 -5.48243 
40.96 12.8681 -642.051 3.07336 5.45517 0.474878 
34.675 -78.7763 -660.869 2.32785 -5.18227 -2.68108 
-33.3327 -25.5973 -692.409 1.58732 0.806177 -6.02546 
-106.094 -21.9902 -612.651 -4.02513 4.32422 -2.01868 
-55.0819 -37.4973 -687.551 -5.73493 -0.384849 -2.53468 
-3.77633 -28.3973 -591.145 1.38374 1.07604 6.03286 
28.4237 -17.8973 -675.545 0.159351 1.6475 -6.06105 
135.495 -37.609 -664.51 -5.0962 -2.61282 -2.57007 
-77.8311 -59.8973 -686.923 2.63334 -0.842143 -5.63958 
157.465 -24.8973 -665.151 5.79404 0.836729 -2.28076 
-101.744 -67.0246 -681.295 -4.79688 2.28664 3.34709 
22.1237 1.4246 -616.151 1.4341 4.74069 3.86571 
8.82367 3.8027 -610.337 4.42531 -0.192565 4.11879 
-28.9763 -11.5973 -687.764 1.84426 2.18868 -5.59336 
-80.8523 7.28032 -618.979 2.84089 4.32258 3.54794 
-100.376 -77.5149 -681.392 -2.27167 -4.52559 -3.7187 
-35.9665 -22.0735 -692.453 1.37676 1.1558 -6.02047 
60.6237 -28.3973 -677.512 0.814787 0.2576 -6.22218 
64.1237 -24.8973 -676.013 1.58393 0.895711 -5.98684 
156.252 -5.29731 -625.951 5.93864 1.77993 1.00768 
-31.0763 -31.1973 -692.31 1.82754 0.335601 -6.00192 
-77.2763 8.32247 -658.851 1.06896 5.90371 -1.86583 
-80.6427 -71.833 -682.684 2.13742 -4.00181 -4.34529 
-42.2763 -82.5396 -622.451 1.72943 -5.49895 2.4997 
-93.3763 -33.9973 -690.049 1.6283 -3.08061 -5.22836 
150.924 -53.5265 -667.841 0.840631 -5.16562 -3.45746 
157.245 -57.1149 -658.165 4.33363 -2.84296 -3.53393 
-3.77633 -34.6973 -683.025 1.9146 0.14755 -5.98226 
-45.0763 4.62604 -680.689 -0.326418 4.65701 -4.18814 
-42.4054 -15.8482 -692.438 1.13006 1.46061 -6.00565 
-68.1664 -15.035 -682.656 2.71566 0.786314 -5.61 
96.3237 -46.0438 -672.919 0.907572 -2.44263 -5.70372 
158.868 -59.1973 -642.051 5.86667 -2.02815 0.96109 
12.3237 -70.1441 -612.651 -1.85107 5.57909 1.75452 
-98.2763 -12.7097 -692.451 -4.78578 1.84784 -3.35771 
-25.4763 19.6591 -623.151 -2.19869 5.14523 2.85829 
-83.5053 -31.2333 -687.567 2.37302 -2.24183 -5.36815 
-93.2337 -12.2641 -692.463 0.94803 2.05675 -5.85947 
-103.015 -11.5973 -642.051 -6.27087 0.0368345 -0.389251 
-3.77633 -31.1973 -682.866 1.94976 0.534016 -5.94741 
-82.1763 -7.39731 -685.809 2.33794 3.41655 -4.72177 
51.5237 -43.7973 -674.056 0.471729 -2.49811 -5.72995 
-70.9763 4.90281 -665.151 1.12251 5.6822 -2.43412 
-99.8158 -63.3973 -691.136 -3.03542 -1.2551 -5.34992 
-22.6763 -60.5973 -684.307 2.11574 -2.8388 -5.18982 
-98.9763 -84.7285 -670.051 -0.827114 -5.65313 -2.56188 
-2.37196 -8.79731 -600.051 2.29101 -0.144052 -0.41373 
-53.0766 -50.7973 -688.951 -5.26559 -0.913658 -3.29792 
-77.1731 -15.0973 -609.785 3.31813 -0.074055 5.33262 
-52.3212 -5.29731 -681.251 -5.2536 2.06226 -2.75926 
-96.8763 -64.0337 -691.731 -0.0642856 -1.88311 -5.99367 
-87.7763 -74.9965 -682.651 1.67576 -4.63759 -3.89266 
-93.4418 -77.3702 -681.934 1.09124 -4.85244 -3.83681 
-58.0195 -31.1973 -681.251 -5.48772 -0.113522 -3.03961 
-105.041 -27.6973 -645.551 -6.26033 -0.501347 -0.136926 
15.8237 -31.1973 -678.267 0.694664 0.659136 -6.2096 
-73.7763 -40.9973 -681.643 1.76865 2.9199 -5.27473 
106.124 -58.1589 -652.551 2.84819 -5.21685 -2.02848 
-103.243 3.70137 -642.051 -5.32854 -3.20265 0.137684 
-22.8029 -15.0973 -686.801 2.20734 1.73986 -5.61908 
-104.693 -8.79731 -618.951 -6.25712 -0.152928 -0.451572 
80.2237 -24.8973 -589.996 0.941687 3.10278 5.36283 
-84.1512 -87.9153 -648.432 1.72843 -5.89326 -1.32642 
156.526 -56.4026 -619.604 5.56345 -2.84547 0.616896 
92.8237 -47.9973 -672.415 0.516041 -3.22573 -5.35463 
67.6237 -27.6973 -676.073 0.605936 1.67419 -6.01915 
-96.8763 -61.9973 -692.271 -0.0665807 -1.4362 -6.11503 
64.1237 -2.61458 -663.658 0.485659 3.86228 -4.92947 
-54.3756 -57.0973 -684.051 -5.49151 -1.26019 -2.7805 
61.1832 -12.2973 -599.954 -3.5023 1.37649 5.03117 
-12.8763 9.51948 -597.844 -0.374684 4.25608 4.59653 
-101.039 -5.90655 -684.051 -5.75507 -2.50348 -0.112389 
150.924 -24.8973 -673.811 3.18792 0.548967 -5.377 
99.1237 -52.8973 -666.949 1.59775 -3.72876 -4.78853 
-89.8763 -60.5973 -691.904 1.52813 -1.06804 -5.99793 
-19.8763 -21.3973 -687.293 2.10033 1.10274 -5.81793 
130.024 1.00269 -662.185 -5.26473 -0.366048 -3.40386 
-64.6763 -37.4973 -678.566 0.419765 0.661312 -6.21138 
-92.6763 -26.0371 -606.351 3.0424 -4.98301 2.31965 
108.856 0.976475 -658.027 2.02891 5.45969 -2.35629 
-22.8253 -80.1619 -648.351 1.39482 -6.12253 -0.211688 
108.224 -59.5049 -642.051 3.23659 -5.28901 -1.01125 
25.6237 -5.92259 -609.782 0.879841 4.2286 4.54786 
-96.8763 -41.6973 -689.31 0.47954 2.84611 -5.57913 
-32.4763 -12.2973 -689.112 1.5748 2.06212 -5.72239 
-67.4763 -11.5973 -681.565 2.25928 1.68977 -5.61291 
-84.2763 -24.8973 -689.915 2.39446 -1.44161 -5.62448 
-32.4763 17.1027 -649.542 0.229182 1.91027 -5.96652 
-26.1763 21.5598 -628.751 -2.0528 5.4505 2.34709 
-45.0763 -60.5973 -691.948 0.216965 -2.2715 -5.84091 
-104.582 -24.8973 -655.413 -6.25133 -0.225901 -0.588449 
70.4237 -64.2688 -645.551 -1.18218 -6.13951 -0.619404 
-18.4763 -17.1973 -685.811 2.09425 1.4379 -5.74662 
57.8237 -3.86776 -665.877 0.299021 4.13581 -4.71807 
-80.7353 -44.4289 -686.168 2.26027 2.62359 -5.24252 
41.6661 -76.5958 -635.792 3.12628 -3.44611 4.19387 
-90.5763 -34.0544 -613.289 1.33305 -4.39328 4.28502 
-96.8763 -88.5978 -658.153 0.271673 -6.07436 -1.44476 
-38.0763 -84.5492 -651.851 1.88779 -5.97935 -0.375421 
-29.6763 -18.5973 -690.082 1.82046 1.36391 -5.85668 
-45.0763 -8.63245 -690.426 0.600475 2.51439 -5.72096 
153.488 -5.29731 -667.951 5.50708 0.974867 -2.85402 
31.7789 -43.742 -676.339 0.941586 -1.32259 -6.06968 
50.1237 -18.5973 -676.135 2.81576 1.8986 -5.28552 
-80.0763 -60.5973 -609.055 0.395184 -1.55032 5.98307 
51.398 -15.0973 -606.902 -4.52724 1.98913 3.87188 
-41.5763 -60.5973 -691.282 1.58846 -2.30435 -5.62471 
12.3237 -68.8946 -615.269 -0.753719 5.50949 2.91599 
-103.418 -2.49731 -674.251 -6.1759 -0.832216 -0.678649 
-26.1763 -47.2973 -690.167 2.11965 -1.00173 -5.82931 
133.792 15.0027 -662.351 -4.02464 3.16764 -3.63447 
-16.3763 -34.6973 -589.06 0.341252 -0.0264805 6.27371 
-89.8763 -57.0973 -692.268 1.79638 -0.196238 -6.01484 
124.324 -46.1595 -654.651 3.48834 -4.7644 -2.14283 
54.2689 5.19647 -651.803 0.524875 6.04795 -1.61588 
-55.9524 -17.8973 -681.251 -4.95982 0.892713 -3.72911 
66.9237 -64.5471 -635.751 -0.900225 -6.21653 -0.133066 
6.56603 -11.6347 -674.931 1.30303 2.85593 -5.44232 
-26.1763 -78.0584 -619.065 -1.15558 -5.85623 1.95991 
-22.6763 -40.9973 -589.176 -0.00708359 -0.894613 6.21884 
-100.302 -5.29731 -687.41 -5.46157 -0.315278 -2.99094 
-104.307 -44.4973 -648.351 -6.27412 -0.274653 -0.0348531 
-52.0763 -8.09731 -602.367 -1.95996 3.25648 4.96872 
-73.0763 -81.3203 -659.551 2.07192 -5.68925 -1.67727 
-5.87633 -21.3973 -682.191 2.05612 1.17268 -5.81984 
153.762 -47.4239 -671.475 3.06758 -1.78986 -5.17261 
74.6237 -65.3009 -644.851 -1.63139 -6.04535 -0.504609 
-49.112 -57.0973 -691.623 -3.83637 -1.64225 -4.68892 
141.649 -33.9973 -673.652 -2.94815 -1.02541 -5.44485 
-86.5207 -43.8474 -688.224 1.91708 2.84872 -5.26165 
-102.474 -63.9701 -635.718 -6.25874 -0.228037 -0.493778 
-68.0121 -18.5973 -682.731 2.7611 -0.171939 -5.64078 
34.7237 -11.5973 -674.563 -2.88854 1.73989 -5.27981 
-89.8763 -53.5973 -692.181 1.76272 0.428902 -6.01538 
-26.1763 -37.4973 -690.873 1.93464 -0.0381369 -5.97766 
-28.9763 -78.3432 -620.351 0.318321 -5.61928 2.78746 
96.461 -5.26484 -671.466 1.38277 2.44925 -5.59521 
-87.0763 -53.5973 -691.221 2.23578 0.31471 -5.86135 
-51.398 -53.6783 -690.405 -4.78788 -1.29293 -3.85421 
-73.7763 4.27924 -667.951 1.14829 5.59385 -2.617 
-49.9802 -54.3198 -691.755 -4.21867 -1.36028 -4.4446 
6.02367 23.6555 -661.651 1.62476 5.46853 -2.62209 
-96.8763 -93.0465 -622.451 0.891617 -6.21907 0.0346577 
-93.3763 -38.1973 -687.844 1.56917 -1.6028 -5.82983 
-75.0686 -18.5973 -686.208 2.89317 0.0832745 -5.57395 
-96.8763 3.73233 -676.923 -0.257769 5.48936 -3.04516 
140.454 -41.5668 -605.687 -4.42909 -1.90951 4.02109 
-38.0763 -54.9973 -692.217 1.81098 -1.62081 -5.79362 
2.52367 25.6458 -658.151 1.00343 5.97848 -1.6503 
103.389 5.23204 -621.646 2.27847 5.05442 2.95306 
-78.6763 -29.7973 -685.914 2.34557 -1.99572 -5.47592 
22.1237 -86.0624 -642.051 1.23173 -5.59719 2.52134 
16.5237 -1.79731 -613.848 -2.27193 -2.4708 5.23043 
-58.3763 -59.8973 -679.663 0.721544 -2.86069 -5.5455 
107.468 -55.6672 -657.294 2.91119 -5.12844 -2.15753 
-35.2763 -54.2973 -691.614 1.84557 -1.74867 -5.74339 
-66.0009 -53.5973 -682.669 1.42541 0.0184783 -6.11678 
86.5237 -40.9973 -676.859 0.392464 -1.97888 -5.94652 
-77.2422 10.8214 -632.098 2.80457 5.47414 1.26638 
-23.5115 -28.3973 -689.605 2.04588 0.530206 -5.917 
112.473 -24.8973 -670.783 3.39998 -0.201473 -5.27965 
-90.5355 1.00736 -680.558 1.03441 5.08695 -3.53365 
13.0237 -37.4973 -679.055 1.02818 0.126741 -6.19686 
-89.8135 -50.6339 -691.767 1.57482 1.15437 -5.97182 
-13.5763 -43.7973 -685.974 2.19342 -0.617893 -5.85532 
-51.4738 -50.7973 -691.169 -4.76233 -1.06018 -3.95215 
31.9237 9.993 -630.254 0.769871 4.33922 4.47784 
60.6237 5.51634 -628.751 -2.56833 5.65745 0.93505 
-35.2763 -51.4973 -692.273 1.74788 -1.24644 -5.90485 
-6.57633 23.5954 -628.751 1.76698 5.67614 2.02166 
-86.2476 -4.56538 -685.481 2.00173 4.02105 -4.39321 
-35.2763 -81.345 -665.151 2.08993 -5.66117 -1.74711 
-104.835 -37.4973 -635.051 -3.10502 -0.309865 -0.363315 
147.104 1.00269 -606.351 5.0043 1.62511 3.43055 
-100.376 -47.2973 -691.454 -3.29643 1.38722 -5.12377 
-60.4195 -24.8973 -609.851 -6.13719 0.872695 1.02456 
-93.4119 -47.3159 -691.738 1.06813 2.14949 -5.79867 
12.9317 5.83981 -618.306 1.74006 5.21163 3.04679 
-2.95474 -67.6156 -671.471 1.32166 -4.56112 -4.11162 
-89.8763 -47.2973 -690.838 1.5564 2.05972 -5.72684 
-19.1763 26.6559 -638.551 -1.51061 5.96248 1.28004 
-52.1457 -47.2973 -691.147 -5.01961 -0.884316 -3.67071 
-77.2413 -4.56622 -681.265 1.78434 3.95054 -4.54809 
-31.8035 -58.4738 -688.932 1.93491 -2.23119 -5.54543 
-82.8763 -46.002 -611.335 1.83215 3.77764 4.67427 
28.4237 6.88706 -625.951 0.70207 5.11242 3.58439 
-77.8315 -24.8973 -686.932 2.87203 -0.997218 -5.49723 
-51.3763 -44.4973 -595.483 -0.165402 -0.800701 6.22438 
-83.5348 -5.25278 -684.771 2.23112 3.83822 -4.44536 
-35.2763 11.1709 -667.951 1.23165 5.55863 -2.6569 
40.7301 -82.2973 -642.751 3.91952 -4.06652 2.73048 
74.6237 -40.2973 -676.188 -1.12059 -2.55613 -5.62248 
72.5237 -26.9973 -676.065 -0.680009 0.278772 -6.21977 
-33.1763 -59.1973 -689.106 1.88584 -2.22826 -5.56375 
-10.7763 28.5253 -645.551 0.264233 6.27351 -0.13141 
-31.7763 -47.9973 -691.908 1.86181 -0.964931 -5.92255 
15.0681 -85.7045 -639.998 2.73058 -4.0132 3.96883 
129.953 10.8027 -658.763 -5.76465 1.31451 -2.01315 
68.9841 -55.0247 -602.061 -3.01244 -4.67756 2.89829 
-30.3763 -56.3973 -689.217 1.88422 -1.98474 -5.6558 
-89.8763 -43.1907 -612.052 0.930525 4.61677 4.15851 
-96.8763 -47.2973 -692.079 0.188037 2.19535 -5.88266 
-47.9089 -69.7704 -686.179 -3.4112 -3.20364 -4.17371 
15.8237 -34.6973 -678.56 0.664445 0.367403 -6.2371 
44.5237 -57.0973 -668.386 1.25952 -2.77459 -5.49479 
-28.8621 -47.2973 -691.089 1.95883 -0.974075 -5.8891 
-7.39642 0.279221 -670.726 1.70876 4.43912 -4.10346 
-22.7393 -76.771 -612.651 -4.83235 -3.85092 1.02649 
-22.6476 -21.2933 -688.261 2.08758 1.16291 -5.81093 
51.381 7.23016 -645.551 2.703 5.64103 -0.582599 
114.221 -36.7973 -607.751 4.94764 -2.51036 2.94883 
147.424 -34.6973 -675.05 0.201108 -0.221009 -6.2672 
50.8742 -83.039 -654.675 4.01993 -2.31616 -4.21531 
-52.6799 -44.4973 -690.905 -5.21832 -0.515943 -3.45303 
-75.1763 -57.0973 -685.906 2.62211 -0.0729655 -5.70903 
1.82367 18.5027 -663.207 -1.46866 1.32371 3.58226 
-48.5625 -66.8765 -687.526 -3.93665 -2.51814 -4.18549 
124.214 -43.0664 -617.582 2.24606 -4.09395 4.2019 
41.0237 -5.99731 -616.534 2.32405 3.66482 4.53519 
-31.7763 -45.1973 -692.309 1.85799 -0.642805 -5.96634 
57.9008 -40.1386 -600.792 -2.78603 -2.64205 4.97233 
-63.9763 -81.0555 -638.551 2.09891 -5.92126 -0.0665386 
-0.976334 22.0667 -666.624 0.693319 4.70563 -4.09905 
-68.1726 -33.9994 -679.852 1.84838 -1.72132 -5.75102 
-70.9764 -34.6973 -618.951 0.568841 -3.32996 5.29158 
-55.3436 1.00269 -616.151 -5.13427 2.89943 2.16303 
145.379 -56.3259 -609.908 -3.11877 -4.561 2.97573 
-31.0763 -42.3973 -692.312 1.8776 -0.31103 -5.98777 
-12.1763 -71.5435 -669.351 1.49254 -5.20131 -3.1927 
10.9237 12.9027 -659.879 -1.89286 0.0252892 5.9862 
-29.0084 -40.9973 -691.741 1.94437 -0.253793 -5.96872 
-80.7763 -66.1973 -686.59 2.69948 -2.33682 -5.16512 
-101.423 -3.1973 -663.751 -5.15406 -3.45176 0.834975 
-0.207514 -14.9808 -678.473 1.87979 2.14276 -5.59903 
-52.7212 -38.1973 -691.669 -5.14882 -0.452482 -3.57171 
-23.3651 -62.7009 -683.353 2.07139 -3.15153 -5.02428 
3.99868 11.5722 -618.951 4.33151 4.5083 0.616662 
106.124 -54.183 -616.308 2.60391 -4.60089 3.3935 
122.253 -41.7156 -615.421 2.27373 -3.59472 4.623 
-77.997 9.39618 -626.666 3.14393 5.05672 2.00533 
25.6237 -28.3973 -677.379 0.2076 0.356727 -6.26528 
35.4237 -44.4973 -675.51 1.17324 -1.49947 -5.98754 
64.8237 -54.9973 -668.961 2.5775 -3.62489 -4.43574 
90.7712 -62.0009 -656.058 0.709058 -5.64562 -2.65143 
-22.8101 -40.9973 -689.601 2.22516 -0.320893 -5.86713 
-31.6506 -70.4312 -681.283 2.19515 -4.14209 -4.18267 
12.3237 -18.5973 -676.6 0.91467 1.61537 -5.99841 
38.2237 -66.8973 -667.457 1.43304 -0.707604 -6.07077 
-101.455 -22.0973 -685.451 -6.02529 0.736769 1.25944 
-28.9286 -37.4973 -691.766 1.97814 0.0274189 -5.96313 
-93.3763 5.84587 -672.009 0.801408 5.75289 -2.39484 
-19.1763 25.9889 -635.751 -1.46915 5.9223 1.49686 
80.2237 1.31313 -665.151 -0.987678 4.7335 -4.0112 
-99.6784 -87.8986 -660.953 -1.33508 -5.85538 -1.77896 
-52.848 -34.6973 -691.857 -5.15414 -0.231288 -3.56264 
6.71269 3.85172 -608.461 3.69914 -2.63565 4.26052 
146.024 12.465 -663.751 3.36181 4.8615 -2.12895 
-51.5509 -73.1973 -677.751 -5.15664 -2.43797 -2.63228 
-102.476 -94.3821 -624.551 -0.290474 -6.20863 -0.243734 
-13.5763 -84.5219 -611.951 -1.55827 -5.93462 1.32913 
-70.9763 -50.7973 -613.127 1.49301 1.70493 5.85992 
57.8629 -40.8116 -674.922 -3.53993 -1.33131 -4.9918 
-28.931 -34.6973 -691.766 1.94817 0.0578939 -5.9728 
67.6247 9.40236 -641.349 -1.85859 5.71407 -1.83529 
38.2237 6.47324 -657.348 1.58317 3.82489 -4.72614 
-25.4072 -51.5406 -688.963 2.05433 -1.5606 -5.72882 
-96.8763 -37.4973 -615.081 -0.36021 -0.849779 6.13698 
-19.1763 -37.4973 -688.407 1.92785 -0.0726692 -5.97956 
-23.4394 -12.4141 -686.129 1.98091 2.12652 -5.56971 
-80.7763 -76.1179 -677.92 1.95503 -4.82776 -3.51338 
-99.6763 -34.5864 -690.985 -1.07901 -3.07544 -5.33292 
-102.471 -73.1532 -681.148 -6.21295 -0.617254 -0.696737 
-23.2153 -31.1973 -689.708 2.08444 0.370434 -5.91547 
144.624 -15.0973 -675.141 -0.111224 0.278053 -6.27141 
50.8375 -72.5141 -639.222 3.82375 -3.24425 3.78168 
-96.1763 -31.8973 -691.996 1.27201 -2.79269 -5.47907 
-52.8135 -31.1973 -691.804 -5.10602 0.384171 -3.63969 
-89.1763 -76.6973 -595.551 3.67647 -1.42045 4.88211 
-31.7763 -11.5973 -688.656 1.6457 2.19556 -5.65173 
83.0237 -31.1973 -678.265 -0.503365 -0.291725 -6.25231 
148.149 17.1381 -645.551 5.05944 3.66492 0.666084 
38.9237 -37.4973 -605.991 3.67088 -0.46404 5.07544 
118.724 -37.411 -666.519 0.759369 -2.18776 -5.81134 
-29.0973 -31.1973 -691.713 1.91135 0.283935 -5.97775 
-102.849 -76.6973 -677.751 -6.19688 -0.343968 -0.936651 
-12.8701 -79.4649 -655.342 -4.81462 -1.85568 -3.51472 
-98.164 -10.8973 -691.609 -4.84177 1.25435 -3.79162 
-104.828 3.8027 -670.751 -5.6519 2.04132 -1.57799 
-70.9763 -43.7973 -682.145 1.61735 2.39321 -5.57927 
113.951 -40.2973 -610.407 4.04955 -2.82971 3.87216 
125.095 -43.8243 -658.196 3.46282 -4.47977 -2.72138 
-93.3763 -31.8973 -691.275 1.72741 -2.84067 -5.32811 
-64.6763 7.83308 -648.351 0.800496 6.18271 -0.777939 
-103.016 -50.7973 -632.251 -6.25224 -0.0364898 -0.615256 
-101.435 -23.4973 -688.251 -6.15523 0.574176 -1.00155 
-62.5763 -62.6973 -679.492 2.00575 -2.9715 -5.1592 
48.0237 -34.6973 -676.685 0.775956 -0.927087 -6.16212 
-48.6402 -1.61145 -684.826 -4.18741 2.90544 -3.64758 
51.5237 -63.3973 -629.194 1.93621 -2.77714 5.26074 
-102.016 -31.1973 -690.351 -6.21708 0.368086 -0.514307 
99.1237 -15.0973 -674.575 0.957651 1.65644 -5.95811 
-93.3763 -42.3973 -689.184 1.01752 3.22221 -5.2971 
87.2607 -41.0837 -602.139 3.30319 -0.750973 5.29139 
51.6116 -28.3973 -600.132 -4.36284 0.680171 4.46239 
-101.796 -28.3973 -690.351 -6.25889 0.384144 -0.220042 
138.301 -53.6255 -645.551 -4.8515 -3.97305 -0.3813 
28.4237 -34.6973 -677.616 0.471449 0.0892293 -6.26454 
-1.77823 -60.5973 -591.705 3.27917 -0.0235812 5.32833 
131.324 -44.2109 -622.451 -0.86482 -5.44831 2.88958 
6.02367 -31.1973 -593.234 1.60406 0.855016 6.01408 
2.7041 -28.3973 -680.602 1.69587 0.765429 -6.00136 
-101.173 -18.5973 -665.151 -6.26878 0.157014 -0.371746 
-26.1763 -40.9973 -690.79 2.06429 -0.280148 -5.92507 
-52.7763 -38.8973 -595.042 -0.701081 -0.457456 6.22665 
-51.2965 -12.2973 -687.398 -5.31302 1.58199 -2.95477 
76.0292 -5.98752 -597.242 3.48989 2.15936 4.74254 
2.52367 -47.2973 -594.246 2.19292 -1.66628 5.64708 
13.0237 -64.9485 -669.489 1.18029 -4.1479 -4.56896 
-92.6763 -29.0973 -692.222 2.18438 -1.7926 -5.60888 
-64.6763 -44.4973 -616.472 -1.2846 2.93647 5.38875 
35.5732 -54.344 -672.171 1.44276 -2.3975 -5.6255 
102.668 -59.9098 -622.415 1.36698 -5.01894 3.50893 
-101.526 -25.5973 -691.051 -6.12945 1.3329 0.283724 
54.3237 0.615814 -622.451 -3.50615 4.87455 1.84938 
-56.2464 -27.6973 -684.678 -5.76656 0.758336 -2.37517 
63.4237 5.59384 -622.451 -2.17066 5.80583 1.02811 
-35.9763 -9.39275 -601.401 0.661969 2.47175 5.65507 
-90.5763 9.77051 -660.951 0.731548 5.90341 -2.02299 
83.0096 -34.7038 -677.752 -0.367464 -1.7276 -6.02175 
-13.5763 28.42 -645.551 -0.735227 6.18936 -0.653491 
134.824 24.2674 -638.551 -0.907135 6.08449 1.17481 
-87.0127 -63.4459 -690.364 2.19524 -1.46154 -5.70019 
-89.8763 -28.3973 -691.323 2.21583 -1.64261 -5.64475 
85.8237 -65.3852 -625.951 1.52371 -5.9439 1.34511 
73.9237 2.46177 -605.549 0.361624 5.31785 3.31534 
-99.3317 -15.0973 -690.351 -6.18944 0.622085 -0.839115 
-64.5681 -24.8973 -680.59 2.21356 -0.53321 -5.85314 
64.1237 -10.8973 -672.455 0.757949 2.71495 -5.60932 
-73.8384 -63.9285 -684.019 2.74964 -2.09728 -5.24521 
-52.6704 -27.6973 -691.599 -5.05859 0.788817 -3.63935 
-92.607 -35.4158 -688.962 1.63474 -3.06618 -5.23394 
128.524 -47.4907 -629.451 2.0319 -5.79774 1.31277 
-52.3308 -1.79731 -678.451 -5.37118 2.15396 -2.44615 
-57.6208 -63.2117 -609.851 -5.85094 -1.72275 1.50544 
-31.7763 -27.6973 -692.242 1.69612 0.598996 -6.01506 
-19.1763 27.1641 -645.551 -1.18 5.61805 -2.46315 
-89.8763 -24.8973 -692.087 1.99026 -1.2331 -5.83065 
-21.8793 -44.4973 -688.987 2.16784 -0.584179 -5.86818 
-34.386 -78.1333 -672.219 2.04062 -5.25439 -2.77468 
127.824 -40.2973 -617.122 2.22999 -3.34977 4.82417 
-58.3763 -50.7973 -681.531 -0.66358 -0.10207 -6.23874 
-55.5595 -66.866 -674.89 -4.67346 -2.79272 -2.98816 
-7.34307 25.4942 -633.672 1.4241 5.69818 2.23012 
-87.6598 -30.5595 -689.677 2.37308 -2.14072 -5.40659 
80.2237 -24.8973 -677.511 -0.647027 -0.338689 -6.24047 
-68.1976 -66.1788 -679.828 2.5615 -3.04915 -4.85908 
-58.3763 -54.2973 -681.35 -0.144588 -0.75042 -6.22793 
92.7795 1.69985 -665.146 0.731967 5.31852 -3.23617 
150.92 7.29617 -664.432 5.04506 3.10717 -2.07547 
-52.537 -24.8973 -691.051 -5.14542 1.13426 -3.41368 
-64.6274 8.01031 -645.551 0.991485 6.20361 -0.042672 
-100.496 -11.5973 -671.451 -6.261 0.249969 -0.449206 
-21.9763 -47.9973 -688.512 2.12944 -1.14734 -5.79859 
-103.728 -63.3973 -612.651 -6.25891 -0.222811 -0.378909 
-12.9584 -21.476 -684.735 2.20988 1.15182 -5.76766 
103.342 -41.7065 -672.155 2.25339 -2.49077 -5.28587 
-99.6763 -47.1551 -608.984 0.321783 4.77891 4.03335 
124.187 -37.4973 -663.657 3.31233 -1.99292 -4.95241 
-31.7763 -24.8973 -691.879 1.68567 0.905008 -5.98475 
-19.1061 -31.1973 -688.275 2.03754 0.373639 -5.93152 
-17.0763 -59.1973 -682.842 2.06967 -2.69154 -5.28662 
-21.881 -27.6973 -688.983 2.00589 0.532621 -5.93027 
-50.3762 -3.1973 -683.351 -5.1108 2.11267 -2.98049 
-102.761 -70.3973 -680.551 -2.08353 0.688329 0.701191 
-102.381 -77.5132 -665.151 -4.7932 3.7893 1.4604 
-28.9731 -24.8834 -691.052 1.85137 0.849314 -5.94273 
-9.37633 -61.2973 -678.882 1.66401 -3.11526 -5.19611 
-102.465 -50.7973 -687.511 -6.10538 -0.079429 -1.47543 
-80.8375 11.4901 -648.921 1.21327 6.04415 -1.21412 
2.52367 -6.6973 -673.129 1.65274 3.61129 -4.86844 
-52.4541 -70.3973 -605.651 -4.05141 -3.5462 3.22759 
-53.2886 -19.2973 -686.851 -5.6506 1.32859 -2.39479 
-103.113 -63.3973 -625.951 -6.28055 -0.0112845 -0.179744 
128.945 7.3027 -658.151 -5.79076 1.58365 -1.8332 
-101.192 -24.1973 -690.351 -6.09791 1.34878 0.269951 
76.7237 -62.5371 -613.351 0.951659 -5.88531 1.9808 
-80.8075 -11.6364 -687.518 2.67302 2.2529 -5.21999 
119.424 -51.7 -645.551 2.37437 -5.75101 -0.851807 
15.8237 -21.7943 -600.051 -2.25033 5.75227 -1.04255 
-41.5763 -15.0973 -692.093 1.16628 1.60601 -5.96069 
-76.5763 -40.2973 -682.252 2.0434 2.67752 -5.29796 
-104.227 -38.1973 -638.551 -6.22578 -0.503785 -0.605016 
106.243 -61.3789 -639.251 3.53809 -5.08357 -1.0482 
-87.0628 -24.9441 -691.056 2.19061 -1.24421 -5.75589 
83.0237 -24.8973 -677.706 -0.171712 -0.322413 -6.2697 
-100.376 -21.3973 -690.729 -1.11692 0.328134 0.0314119 
25.6587 -47.3036 -676.353 0.615978 -1.53531 -6.06137 
-93.2834 4.50908 -674.964 0.779344 5.57935 -2.78192 
15.8237 -44.4973 -678.178 0.849611 -0.921143 -6.15648 
34.7237 -76.1318 -664.574 2.21934 -3.94982 -4.34308 
93.5237 -52.0836 -669.246 1.19637 -4.14757 -4.56478 
-90.5763 -89.0968 -606.351 2.592 -5.31369 2.11194 
-49.3097 -64.223 -688.286 -4.21636 -2.21858 -4.08978 
60.6237 -8.64305 -670.898 0.342497 4.32809 -4.54049 
158.893 -40.9973 -616.851 6.07886 0.383341 1.54059 
-51.6304 -21.3973 -691.051 -4.96662 1.50614 -3.53803 
18.7456 -85.1199 -660.995 1.98828 -5.32827 -2.66914 
-109.961 -24.8973 -602.851 -6.12175 -1.38761 0.237558 
-26.1763 -12.2973 -687.081 1.97181 2.10623 -5.58131 
-88.4763 -91.1949 -625.251 1.71231 -5.9859 -0.61523 
125.151 -6.71191 -616.868 -0.55449 4.67294 4.12601 
-104.687 5.80525 -636.451 -4.32737 -4.51201 0.491282 
-75.1728 -33.999 -682.652 2.46013 -2.52724 -5.19919 
-0.276329 -86.9287 -616.151 1.64233 -5.04203 3.34171 
-41.5763 -31.1973 -594.002 -2.92579 1.19003 5.42783 
-35.2763 -3.89731 -685.76 1.41743 3.26471 -5.17665 
83.0237 -51.5935 -671.566 0.213391 -4.7667 -4.07648 
-5.87633 -85.0973 -663.459 -3.08678 -1.63124 -5.20337 
157.192 -64.0675 -648.892 4.33178 -4.22853 -1.60172 
-32.4763 -21.3973 -691.467 1.5771 1.21706 -5.95817 
19.3237 -47.2973 -677.158 0.9214 -1.31136 -6.07471 
-100.49 -37.4973 -674.251 -6.26008 -0.103584 -0.517168 
-51.3647 -18.6386 -690.315 -5.03384 1.56244 -3.41454 
-38.8609 -5.36633 -687.531 1.29657 3.05176 -5.33617 
-102.741 -57.0973 -635.751 -6.26125 -0.131808 -0.50309 
25.6237 -56.3973 -673.142 0.764324 -2.8669 -5.5368 
80.2237 -21.252 -592.906 1.0678 4.33031 4.40763 
-87.061 -27.7393 -690.358 2.40768 -1.62325 -5.57048 
86.5237 -55.8349 -666.712 0.416485 -4.80583 -4.00224 
-86.3763 -18.5973 -691.555 2.36732 -0.0911835 -5.81822 
55.0474 -13.0162 -673.503 -3.29252 4.15008 -3.37544 
-58.3763 -2.82507 -673.551 0.797619 4.62018 -4.18143 
-89.8763 -89.3859 -648.351 1.31173 -6.0252 -1.19969 
-16.3763 -34.6973 -687.416 2.19098 0.131524 -5.8856 
134.124 24.5062 -645.551 -2.31743 5.76217 -0.624783 
-22.6763 -15.9374 -593.831 -1.13773 3.00847 5.39167 
54.9519 -24.8973 -677.08 -2.29456 0.321848 -5.83819 
6.72367 17.1027 -666.342 2.04375 0.33146 -5.92939 
-26.074 -57.0848 -593.757 -0.732313 -2.68256 5.63388 
-38.7763 -17.8973 -692.213 1.28342 1.24049 -6.02347 
35.4237 -24.8973 -676.484 0.0851362 0.652273 -6.24776 
-84.1232 -21.3973 -690.422 2.56829 -0.38239 -5.7214 
105.424 -37.4973 -673.33 2.60787 -1.44641 -5.51976 
-61.1763 6.92607 -651.851 0.12043 6.17442 -1.15057 
-103.99 -60.5973 -609.851 -6.25069 -0.340501 -0.511368 
-35.2763 -17.8973 -691.458 1.39502 1.33335 -5.97881 
-100.636 -34.6973 -679.851 -2.14874 0.596095 2.23788 
109.624 -51.1609 -662.351 2.99968 -4.28146 -3.47491 
-49.995 -17.7983 -691.772 -4.48907 1.5498 -4.09078 
57.8237 -31.1973 -677.474 -0.851373 -0.642516 -6.18151 
-86.3763 -15.0973 -691.279 2.36453 1.09677 -5.71197 
48.0237 -60.5973 -665.457 1.45973 -3.42803 -5.04739 
-59.7763 -71.4054 -669.351 2.18337 -4.86538 -3.32111 
109.562 -4.61895 -612.678 2.98416 4.3283 3.43969 
-32.4763 -54.2973 -690.663 1.94555 -1.80366 -5.6953 
-38.7763 -15.0973 -691.528 1.23612 1.66726 -5.93033 
44.5237 -5.0723 -668.651 -0.860979 5.20024 -3.37621 
-101.076 -51.717 -665.851 -3.86379 -3.08847 -3.3881 
5.22011 -70.4995 -606.351 4.19071 4.18854 2.00823 
-66.0763 -33.2973 -679.434 1.49905 -1.50855 -5.90943 
96.3237 -36.7696 -603.574 0.439775 -4.05575 4.77362 
-45.0763 -6.6973 -689.482 0.46989 3.00274 -5.49499 
-3.77633 13.1909 -609.851 2.447 5.47595 1.86776 
-101.83 -57.0973 -690.474 -5.69325 -0.173858 -2.54194 
-38.0763 -1.79731 -685.115 1.44985 3.466 -5.03561 
-3.25923 -76.6973 -663.846 -2.83315 1.41784 -5.41667 
8.94885 -37.4973 -594.413 1.81989 -1.18399 5.89494 
-72.4023 5.89543 -626.664 2.80704 4.85516 2.83064 
138.228 -18.5973 -596.463 -4.03544 -1.69304 4.4927 
-84.3091 -41.7188 -686.125 2.02622 3.10537 -5.07161 
-99.0919 -12.2973 -690.351 -5.93733 0.728199 -1.90956 
-6.57633 -57.0973 -680.142 1.77011 -2.44978 -5.50828 
46.5068 9.33313 -639.951 3.12693 5.31411 1.20813 
-96.8763 -76.0466 -684.102 0.0191828 -4.51016 -4.36797 
-91.2763 -12.9973 -692.329 1.39328 1.88393 -5.82309 
115.924 -24.8973 -668.862 1.59716 -0.116668 -6.04109 
-84.2396 -69.7078 -686.159 2.07067 -3.55333 -4.74837 
161.423 -37.5491 -651.842 6.23354 0.243858 -0.738749 
-25.4763 -15.0973 -687.781 1.98775 1.72171 -5.70564 
-53.5784 -37.4973 -690.509 -5.31802 -0.478549 -3.30649 
-54.1763 -56.3973 -598.193 -3.20307 -1.80979 5.05495 
-45.0763 -11.5973 -691.584 0.632612 2.08217 -5.89183 
-103.377 -79.4973 -671.451 -6.21992 -0.388046 -0.762025 
-52.7637 -83.6821 -655.233 -4.75878 -3.9656 -1.04243 
73.9237 -61.9843 -611.284 0.168064 -5.77512 2.46236 
-32.4763 -68.9973 -682.985 2.09429 -3.8102 -4.5347 
-0.234201 -90.706 -632.164 1.16597 -6.05988 1.17918 
-103.216 -1.82576 -664.986 -3.76303 -4.77502 1.58178 
-42.0934 -11.5479 -691.069 1.10689 2.09345 -5.81959 
44.5237 -21.3973 -677.471 1.46289 0.762149 -6.05856 
15.8237 -28.3973 -677.942 0.620069 0.788395 -6.20183 
80.2237 -54.2832 -668.638 0.0348459 -4.37535 -4.50521 
-36.1387 12.8836 -664.4 1.30755 5.73139 -2.2146 
-96.8763 -7.93962 -691.144 0.234688 3.07416 -5.44669 
-12.8431 -18.4889 -684.063 2.11973 1.31132 -5.76754 
-52.1322 15.0626 -644.851 -4.58167 4.248 0.645145 
41.7237 -24.8973 -677.639 -1.13859 -0.0879572 -6.17695 
-67.4763 -63.3973 -680.986 2.3411 -2.4174 -5.30511 
-93.4356 -8.82485 -691.022 1.23775 2.90429 -5.43168 
-89.8763 14.489 -642.051 1.04733 6.11573 -0.981255 
-48.5763 10.479 -671.451 -2.92001 4.67724 -2.95943 
146.464 6.60269 -609.851 4.80407 3.22399 2.43737 
-7.27633 -22.0973 -682.815 2.07574 1.04309 -5.83751 
147.424 -11.5973 -674.538 1.96877 0.272371 -5.95937 
69.7237 5.65396 -652.551 -2.0392 5.70138 -1.67563 
-13.5763 -66.1973 -676.662 1.84133 -4.02401 -4.45816 
-99.6763 -66.8973 -690.157 -2.47399 -2.08675 -5.35909 
-58.4149 5.20924 -632.238 -2.38089 5.23069 2.47155 
19.3237 -24.8973 -677.18 0.462488 1.0588 -6.17553 
-96.8763 -66.8973 -690.672 -0.220328 -2.49503 -5.75801 
-87.0763 -47.9973 -690.219 1.92807 1.68785 -5.72998 
60.6237 -31.1973 -677.489 0.533655 -0.105072 -6.25899 
-55.1795 -34.6973 -687.551 -5.77748 -0.0928773 -2.46781 
34.7237 12.5608 -633.651 1.42707 4.78918 3.80609 
144.624 -2.49731 -674.675 0.701449 0.523535 -6.21997 
121.531 -49.4022 -651.184 3.31111 -5.1387 -1.45064 
129.224 -26.3414 -663.056 -0.229666 -0.531425 -6.17102 
99.1237 2.83862 -660.951 1.25965 5.30822 -3.11615 
-86.3965 -87.1567 -609.193 4.3183 -4.12775 1.9296 
31.9619 -31.1973 -599.326 3.37592 0.113762 5.29386 
-19.3044 -70.4445 -593.732 -1.50855 -2.2825 5.65127 
83.0237 -44.5964 -675.004 0.0989243 -3.00502 -5.51028 
-63.9763 -80.5159 -648.351 2.07497 -5.87695 -0.78676 
-93.3763 -67.0928 -690.446 0.510011 -2.65932 -5.66864 
60.7947 -15.0973 -599.461 -3.336 1.41283 5.13322 
-45.0763 -63.3973 -690.77 0.360917 -2.55851 -5.71395 
80.2237 3.65078 -609.851 1.65055 5.45675 2.64106 
-103.777 -53.5973 -655.351 -6.25551 0.0579971 -0.585947 
12.3237 17.1027 -664.07 2.60424 1.35609 -5.54955 
-102.15 -66.8973 -638.551 -6.25884 -0.191658 -0.517794 
-102.468 -34.767 -687.551 -6.21942 0.751303 -0.400986 
-25.4763 -80.8082 -648.351 1.54577 -6.08733 -0.176725 
-49.1648 1.63133 -681.182 -4.2487 3.21724 -3.31198 
-103.082 -15.0973 -642.051 -6.27101 0.127656 -0.348948 
-63.9763 -8.09731 -618.572 1.75304 2.58178 5.45242 
-38.6415 -60.6505 -690.374 1.86388 -2.34733 -5.5221 
-57.6763 7.13864 -651.851 -1.42587 5.91565 -1.48906 
19.3237 -17.8414 -675.669 0.368342 1.78285 -6.01061 
-89.7626 -5.2748 -687.571 1.58539 3.95521 -4.61333 
-101.799 -54.2973 -690.433 -5.9447 0.441229 -1.96495 
73.9237 -24.8973 -676.449 -1.16707 -0.699122 -6.1336 
-84.2796 -15.1054 -690.348 2.57199 1.16859 -5.60989 
-19.1763 8.18112 -665.151 1.51492 5.42273 -2.78738 
83.0237 -56.9846 -606.483 2.65067 -4.32719 3.69536 
147.424 -28.3973 -675.172 0.738022 -0.0779608 -6.23324 
47.8488 -75.9431 -639.286 2.34988 -3.15579 4.88978 
-35.4356 -67.5528 -685.418 2.00341 -3.55576 -4.77685 
12.3237 -28.5069 -594.476 0.511217 1.57798 6.05424 
9.52367 -76.6973 -667.802 -1.18194 1.2765 -6.03716 
-101.775 -50.7973 -690.347 -5.87866 -0.0300599 -2.20308 
-10.9037 -3.25657 -591.664 1.38716 1.39512 5.9609 
154.682 -5.29731 -665.151 5.80611 1.02947 -2.16871 
-40.8763 -64.9455 -689.033 1.64288 -2.88463 -5.3336 
6.02367 19.9752 -639.143 -0.694071 5.18259 3.47424 
-56.5534 -71.7973 -617.551 -5.53857 -2.50366 1.59018 
-19.1763 -27.6973 -688.028 2.13289 0.622534 -5.87571 
-77.2763 4.93866 -667.951 1.02313 5.68258 -2.477 
-16.3763 -76.2861 -661.651 1.51113 -5.77314 -1.96475 
116.62 -24.2028 -604.953 4.70233 1.30124 3.95485 
-87.0763 -50.7973 -690.916 2.29512 0.999851 -5.75295 
-28.9353 -50.9159 -690.365 1.98506 -1.37107 -5.80149 
8.92048 -85.9063 -629.451 4.41396 -4.18647 1.53807 
