0.100428 0.014878 -0.924370
0.105289 0.014948 -0.928774
0.106206 0.014953 -0.929125
0.108016 0.014961 -0.929590
0.110227 0.015023 -0.933483
0.126154 0.015462 -0.961075
0.127908 0.015454 -0.960596
0.129902 0.015476 -0.961935
0.131853 0.015491 -0.962922
0.133399 0.015460 -0.960924
0.136708 0.015423 -0.958620
0.139987 0.015386 -0.956227
0.143428 0.015367 -0.955047
0.146852 0.015348 -0.953818
0.148556 0.015338 -0.953168
0.150326 0.015335 -0.952965
0.154000 0.015342 -0.953401
0.155971 0.015359 -0.954448
0.158081 0.015389 -0.956321
0.160171 0.015416 -0.958028
0.162071 0.015424 -0.958562
0.163995 0.015435 -0.959221
0.165959 0.015449 -0.960102
0.169607 0.015451 -0.960200
0.171373 0.015447 -0.959919
0.173159 0.015444 -0.959759
0.174942 0.015442 -0.959579
0.176603 0.015428 -0.958739
0.178357 0.015423 -0.958415
0.180112 0.015418 -0.958104
0.183471 0.015397 -0.956710
0.185165 0.015387 -0.956103
0.186828 0.015375 -0.955354
0.190054 0.015344 -0.953382
0.191697 0.015332 -0.952575
0.193536 0.015335 -0.952766
0.195425 0.015342 -0.953197
0.196417 0.015349 -0.953644
0.197621 0.015372 -0.955125
-0.036870 0.015551 -1.028187
-0.029065 0.015527 -1.026560
-0.028091 0.015524 -1.026339
-0.025085 0.015461 -1.022173
-0.024096 0.015445 -1.021099
-0.023124 0.015439 -1.020698
-0.021177 0.015424 -1.019667
-0.003534 0.014117 -0.932145
0.001720 0.013887 -0.916766
0.006870 0.013794 -0.910496
0.008551 0.013730 -0.906207
0.010222 0.013675 -0.902543
0.011913 0.013657 -0.901384
0.013613 0.013654 -0.901143
0.018599 0.013564 -0.895120
0.019463 0.013577 -0.895977
0.026857 0.013463 -0.888335
0.033553 0.013454 -0.887757
0.036498 0.013614 -0.898450
0.037338 0.013611 -0.898234
0.039015 0.013603 -0.897746
0.084271 0.013790 -0.910094
0.090881 0.014013 -0.925043
0.092624 0.014012 -0.924983
0.101289 0.014002 -0.924259
0.102174 0.014004 -0.924362
0.104627 0.014099 -0.930720
0.105575 0.014108 -0.931335
0.106455 0.014108 -0.931336
0.107283 0.014101 -0.930870
0.157044 0.014472 -0.955503
0.159524 0.014534 -0.959610
0.160610 0.014550 -0.960692
0.161570 0.014555 -0.961003
0.162500 0.014557 -0.961136
0.163421 0.014558 -0.961206
0.165247 0.014559 -0.961258
0.194642 0.014449 -0.953786
0.195624 0.014455 -0.954181
-0.033951 0.014577 -1.027901
-0.031992 0.014568 -1.027278
-0.030050 0.014566 -1.027144
-0.028113 0.014566 -1.027174
-0.026177 0.014567 -1.027225
-0.023155 0.014495 -1.022101
-0.022174 0.014484 -1.021330
-0.020227 0.014470 -1.020293
-0.018290 0.014461 -1.019648
-0.016358 0.014453 -1.019074
-0.007976 0.013302 -0.936845
-0.006198 0.013283 -0.935511
-0.004424 0.013262 -0.934043
0.001723 0.013044 -0.918417
0.002586 0.013021 -0.916771
0.004306 0.012985 -0.914215
0.006018 0.012950 -0.911750
0.007709 0.012897 -0.907941
0.009383 0.012840 -0.903868
0.010217 0.012814 -0.902044
0.011061 0.012805 -0.901369
0.012764 0.012804 -0.901315
0.013604 0.012794 -0.900569
0.014416 0.012759 -0.898059
0.015226 0.012727 -0.895792
0.023101 0.012869 -0.905935
0.023944 0.012862 -0.905459
0.034796 0.012763 -0.898347
0.036514 0.012770 -0.898852
0.038188 0.012761 -0.898251
0.039856 0.012752 -0.897569
0.041526 0.012744 -0.896977
0.083230 0.012901 -0.908094
0.084239 0.012924 -0.909743
0.085389 0.012968 -0.912884
0.087644 0.013047 -0.918507
0.089740 0.013099 -0.922260
0.090865 0.013136 -0.924872
0.091827 0.013149 -0.925776
0.092754 0.013156 -0.926297
0.093522 0.013141 -0.925223
0.096822 0.013114 -0.923305
0.098591 0.013118 -0.923528
0.104799 0.013241 -0.932277
0.106543 0.013238 -0.932113
0.108328 0.013241 -0.932311
0.110217 0.013257 -0.933396
0.123008 0.013699 -0.964951
0.124433 0.013655 -0.961827
0.127873 0.013635 -0.960334
0.129779 0.013644 -0.961016
0.131517 0.013636 -0.960437
0.133154 0.013618 -0.959131
0.134839 0.013605 -0.958207
0.145027 0.013543 -0.953671
0.146719 0.013532 -0.952944
0.148469 0.013528 -0.952605
0.150274 0.013528 -0.952628
0.152098 0.013530 -0.952774
0.155850 0.013544 -0.953698
0.156942 0.013560 -0.954875
0.158505 0.013617 -0.958924
0.160833 0.013661 -0.962047
0.162621 0.013658 -0.961862
0.164469 0.013661 -0.962034
0.166329 0.013664 -0.962272
0.168131 0.013663 -0.962171
0.171727 0.013660 -0.961935
0.175284 0.013654 -0.961483
0.177045 0.013650 -0.961170
0.178730 0.013640 -0.960445
0.185427 0.013598 -0.957478
0.188706 0.013574 -0.955719
0.192102 0.013559 -0.954620
0.193971 0.013563 -0.954936
0.194906 0.013566 -0.955098
0.196046 0.013582 -0.956267
-0.034956 0.013620 -1.028970
-0.032992 0.013611 -1.028239
-0.023224 0.013571 -1.025199
-0.021228 0.013531 -1.022179
-0.020243 0.013518 -1.021127
-0.019276 0.013515 -1.020912
-0.018303 0.013507 -1.020333
-0.017339 0.013506 -1.020246
-0.005316 0.012404 -0.935928
-0.001773 0.012355 -0.932145
-0.000892 0.012345 -0.931403
0.001724 0.012186 -0.919253
0.010217 0.011961 -0.902057
0.011912 0.011952 -0.901345
0.013585 0.011925 -0.899264
0.015232 0.011884 -0.896104
0.022272 0.012027 -0.907075
0.023957 0.012012 -0.905946
0.035691 0.011928 -0.899519
0.084182 0.012055 -0.909119
0.090750 0.012246 -0.923687
0.091878 0.012280 -0.926292
0.092756 0.012281 -0.926323
0.096845 0.012244 -0.923524
0.097718 0.012244 -0.923525
0.099491 0.012248 -0.923785
0.103044 0.012360 -0.932340
0.103978 0.012366 -0.932827
0.121482 0.012818 -0.967350
0.122140 0.012792 -0.965301
0.156938 0.012657 -0.954851
0.159924 0.012751 -0.962045
0.160892 0.012756 -0.962405
0.161875 0.012762 -0.962845
0.193253 0.012672 -0.955866
0.194216 0.012676 -0.956158
0.198419 0.012772 -0.963495
-0.033996 0.012653 -1.029288
-0.032030 0.012643 -1.028505
-0.028136 0.012637 -1.028028
-0.026199 0.012638 -1.028104
-0.024258 0.012638 -1.028064
-0.022309 0.012632 -1.027617
-0.021321 0.012621 -1.026697
-0.018337 0.012567 -1.022249
-0.016390 0.012553 -1.021118
-0.014457 0.012548 -1.020674
-0.013491 0.012545 -1.020422
-0.006210 0.011537 -0.937377
-0.004432 0.011519 -0.935918
-0.002658 0.011493 -0.933726
-0.000893 0.011474 -0.932138
0.001725 0.011321 -0.919552
0.002587 0.011291 -0.917114
0.006013 0.011217 -0.911033
0.009380 0.011127 -0.903602
0.010218 0.011109 -0.902131
0.011065 0.011104 -0.901685
0.012756 0.011092 -0.900726
0.014403 0.011050 -0.897230
0.023122 0.011166 -0.906802
0.034863 0.011085 -0.900111
0.036541 0.011078 -0.899532
0.039878 0.011060 -0.898078
0.043216 0.011046 -0.896866
0.046545 0.011031 -0.895665
0.049889 0.011022 -0.894885
0.053268 0.011021 -0.894821
0.056674 0.011025 -0.895173
0.060130 0.011039 -0.896250
0.063659 0.011063 -0.898251
0.067227 0.011091 -0.900584
0.070743 0.011109 -0.902025
0.074253 0.011124 -0.903243
0.077774 0.011139 -0.904487
0.081364 0.011163 -0.906404
0.083225 0.011182 -0.908037
0.084178 0.011195 -0.909071
0.085267 0.011225 -0.911565
0.087619 0.011307 -0.918247
0.089609 0.011339 -0.920891
0.091824 0.011398 -0.925738
0.093717 0.011415 -0.927174
0.096268 0.011406 -0.926418
0.096986 0.011388 -0.924895
0.098734 0.011388 -0.924888
0.099612 0.011388 -0.924919
0.103116 0.011486 -0.933007
0.104830 0.011481 -0.932558
0.108365 0.011482 -0.932632
0.110189 0.011489 -0.933157
0.121224 0.011879 -0.965269
0.122653 0.011841 -0.962129
0.125998 0.011814 -0.959870
0.129621 0.011813 -0.959829
0.133046 0.011796 -0.958347
0.134781 0.011789 -0.957793
0.136502 0.011781 -0.957156
0.139949 0.011767 -0.955965
0.143333 0.011748 -0.954412
0.146796 0.011737 -0.953449
0.150391 0.011736 -0.953382
0.154065 0.011742 -0.953815
0.156031 0.011754 -0.954825
0.157048 0.011763 -0.955526
0.158616 0.011812 -0.959606
0.161218 0.011870 -0.964379
0.163078 0.011873 -0.964599
0.166719 0.011873 -0.964564
0.170276 0.011867 -0.964043
0.173866 0.011863 -0.963734
0.177275 0.011848 -0.962434
0.180674 0.011832 -0.961140
0.184062 0.011816 -0.959831
0.187351 0.011795 -0.958067
0.189002 0.011785 -0.957241
0.190766 0.011782 -0.957005
0.192576 0.011783 -0.957007
0.193532 0.011786 -0.957263
0.197543 0.011864 -0.963672
-0.034996 0.011691 -1.030143
-0.033034 0.011684 -1.029566
-0.021355 0.011671 -1.028374
-0.017385 0.011611 -1.023042
-0.013495 0.011585 -1.020720
-0.005324 0.010651 -0.937323
0.001725 0.010451 -0.919551
0.010219 0.010257 -0.902248
0.011917 0.010251 -0.901694
0.015251 0.010201 -0.897242
0.020595 0.010330 -0.908733
0.022285 0.010318 -0.907606
0.029004 0.010267 -0.903128
0.029848 0.010264 -0.902824
0.030691 0.010261 -0.902529
0.032373 0.010253 -0.901848
0.084178 0.010335 -0.909075
0.086447 0.010402 -0.914980
0.088594 0.010451 -0.919369
0.094758 0.010557 -0.928811
0.095726 0.010567 -0.929700
0.096562 0.010562 -0.929281
0.097412 0.010559 -0.929015
0.098253 0.010555 -0.928652
0.099054 0.010547 -0.927931
0.100108 0.010566 -0.929595
0.101247 0.010593 -0.932019
0.102239 0.010605 -0.933049
0.103976 0.010602 -0.932810
0.121791 0.010936 -0.962507
0.135607 0.010877 -0.957224
0.157208 0.010870 -0.956511
0.160301 0.010958 -0.964344
0.162340 0.010973 -0.965646
0.190013 0.010886 -0.957782
0.190919 0.010886 -0.957783
0.191828 0.010887 -0.957801
0.192988 0.010901 -0.959084
0.194223 0.010919 -0.960727
0.195601 0.010946 -0.963072
0.196651 0.010954 -0.963767
0.198599 0.010961 -0.964385
0.200437 0.010961 -0.964454
-0.034996 0.010718 -1.030148
-0.034035 0.010722 -1.030494
-0.032066 0.010713 -1.029683
-0.030107 0.010708 -1.029108
-0.026213 0.010703 -1.028667
-0.022331 0.010703 -1.028658
-0.020392 0.010704 -1.028728
-0.019405 0.010694 -1.027837
-0.018396 0.010671 -1.025596
-0.017394 0.010650 -1.023533
-0.016419 0.010644 -1.022969
-0.014473 0.010632 -1.021776
-0.013507 0.010631 -1.021658
-0.006216 0.009775 -0.938336
-0.004437 0.009760 -0.936885
-0.002662 0.009741 -0.935057
-0.000894 0.009724 -0.933339
0.001723 0.009572 -0.918591
0.002586 0.009552 -0.916595
0.004303 0.009521 -0.913571
0.007700 0.009452 -0.906901
0.009377 0.009415 -0.903283
0.011071 0.009404 -0.902209
0.012773 0.009401 -0.901968
0.014458 0.009389 -0.900743
0.021454 0.009471 -0.908737
0.023134 0.009456 -0.907250
0.024816 0.009443 -0.906051
0.028179 0.009423 -0.904044
0.029858 0.009413 -0.903135
0.031540 0.009406 -0.902409
0.033219 0.009398 -0.901677
0.034886 0.009389 -0.900709
0.065547 0.009391 -0.900906
0.067346 0.009405 -0.902205
0.069107 0.009412 -0.902939
0.072645 0.009428 -0.904503
0.074416 0.009436 -0.905258
0.076160 0.009440 -0.905648
0.083216 0.009464 -0.907943
0.085250 0.009499 -0.911378
0.086615 0.009555 -0.916790
0.087601 0.009568 -0.918052
0.089529 0.009589 -0.920059
0.091607 0.009624 -0.923519
0.093877 0.009679 -0.928788
0.095793 0.009695 -0.930360
0.097496 0.009689 -0.929824
0.099237 0.009688 -0.929666
0.100160 0.009692 -0.930082
0.101245 0.009712 -0.932007
0.102256 0.009724 -0.933207
0.103138 0.009724 -0.933207
0.104833 0.009718 -0.932583
0.106557 0.009714 -0.932238
0.110159 0.009721 -0.932903
0.120907 0.010028 -0.962712
0.122448 0.010005 -0.960499
0.124193 0.010000 -0.959949
0.134709 0.009973 -0.957277
0.135560 0.009969 -0.956889
0.136457 0.009969 -0.956840
0.138227 0.009966 -0.956563
0.145191 0.009948 -0.954766
0.146992 0.009947 -0.954739
0.148778 0.009946 -0.954619
0.150597 0.009947 -0.954708
0.152474 0.009952 -0.955162
0.154425 0.009962 -0.956077
0.156298 0.009966 -0.956481
0.157301 0.009972 -0.957087
0.158974 0.010021 -0.961798
0.160461 0.010057 -0.965326
0.161560 0.010068 -0.966454
0.163400 0.010069 -0.966534
0.165170 0.010066 -0.966195
0.168715 0.010060 -0.965564
0.172270 0.010054 -0.965014
0.174105 0.010055 -0.965078
0.175853 0.010051 -0.964651
0.177441 0.010037 -0.963351
0.179154 0.010031 -0.962756
0.180879 0.010026 -0.962244
0.182571 0.010019 -0.961563
0.184228 0.010011 -0.960713
0.185903 0.010003 -0.959968
0.187682 0.010001 -0.959783
0.189431 0.009998 -0.959442
0.190361 0.009999 -0.959558
0.191490 0.010011 -0.960690
0.192505 0.010016 -0.961226
0.193788 0.010036 -0.963112
0.195867 0.010049 -0.964399
0.197680 0.010048 -0.964348
0.199544 0.010051 -0.964546
0.200443 0.010050 -0.964485
-0.034993 0.009745 -1.030066
-0.033061 0.009748 -1.030413
-0.019421 0.009732 -1.028679
-0.017427 0.009702 -1.025518
-0.016427 0.009683 -1.023457
-0.015458 0.009681 -1.023215
-0.014481 0.009673 -1.022400
-0.013512 0.009670 -1.022038
-0.006219 0.008892 -0.938754
-0.005329 0.008886 -0.938117
0.001722 0.008696 -0.917781
0.008538 0.008576 -0.904893
0.013631 0.008552 -0.902374
0.014485 0.008553 -0.902421
0.015337 0.008553 -0.902421
0.016195 0.008555 -0.902682
0.017060 0.008561 -0.903327
0.017941 0.008574 -0.904717
0.018846 0.008597 -0.907183
0.086648 0.008691 -0.917142
0.088534 0.008706 -0.918739
0.094931 0.008817 -0.930532
0.096662 0.008814 -0.930260
0.100145 0.008811 -0.929945
0.102254 0.008842 -0.933192
0.103983 0.008839 -0.932870
0.121555 0.009099 -0.960613
0.135555 0.009064 -0.956857
0.148007 0.009052 -0.955475
0.148916 0.009052 -0.955514
0.149833 0.009053 -0.955606
0.155471 0.009066 -0.956959
0.156391 0.009067 -0.957054
0.157570 0.009083 -0.958748
0.159373 0.009134 -0.964248
0.160678 0.009157 -0.966645
0.162582 0.009161 -0.967110
0.173248 0.009145 -0.965386
0.174160 0.009146 -0.965387
0.175100 0.009147 -0.965538
0.176822 0.009142 -0.964966
0.180093 0.009123 -0.962913
0.180981 0.009122 -0.962793
0.181785 0.009116 -0.962223
0.182670 0.009115 -0.962090
0.183579 0.009115 -0.962091
0.184537 0.009118 -0.962346
0.185666 0.009128 -0.963500
0.187439 0.009126 -0.963241
0.190945 0.009120 -0.962547
0.192077 0.009130 -0.963674
0.193056 0.009133 -0.964018
0.194952 0.009137 -0.964385
0.200441 0.009138 -0.964474
-0.032086 0.008775 -1.030341
-0.030124 0.008770 -1.029708
-0.028170 0.008766 -1.029270
-0.024286 0.008766 -1.029275
-0.020402 0.008766 -1.029260
-0.018460 0.008765 -1.029210
-0.016474 0.008742 -1.026413
-0.014516 0.008729 -1.024854
-0.006222 0.008009 -0.939286
-0.004441 0.007996 -0.937689
-0.002666 0.007985 -0.936388
-0.000895 0.007969 -0.934512
0.002582 0.007809 -0.915429
0.006006 0.007762 -0.909936
0.007697 0.007734 -0.906526
0.008536 0.007718 -0.904646
0.009382 0.007711 -0.903781
0.012786 0.007703 -0.902895
0.014493 0.007704 -0.902941
0.016200 0.007704 -0.902977
0.017060 0.007707 -0.903349
0.017945 0.007721 -0.904949
0.018879 0.007753 -0.908794
0.019764 0.007763 -0.910007
0.021466 0.007757 -0.909264
0.023149 0.007745 -0.907878
0.026516 0.007726 -0.905635
0.029867 0.007708 -0.903423
0.033230 0.007696 -0.901976
0.036577 0.007682 -0.900415
0.039930 0.007673 -0.899252
0.043277 0.007663 -0.898146
0.046617 0.007655 -0.897078
0.049960 0.007647 -0.896191
0.053326 0.007644 -0.895811
0.056748 0.007649 -0.896357
0.060234 0.007661 -0.897824
0.063866 0.007690 -0.901229
0.065712 0.007706 -0.903206
0.067556 0.007722 -0.905060
0.069356 0.007732 -0.906241
0.071051 0.007730 -0.906002
0.072759 0.007730 -0.905947
0.074469 0.007729 -0.905913
0.076252 0.007737 -0.906764
0.077999 0.007740 -0.907140
0.081523 0.007749 -0.908210
0.083332 0.007757 -0.909222
0.086622 0.007822 -0.916861
0.087564 0.007829 -0.917665
0.089475 0.007844 -0.919495
0.091508 0.007869 -0.922513
0.093785 0.007914 -0.927857
0.094913 0.007935 -0.930353
0.095792 0.007936 -0.930354
0.097481 0.007930 -0.929677
0.099195 0.007926 -0.929268
0.100094 0.007928 -0.929459
0.101107 0.007939 -0.930717
0.102168 0.007953 -0.932394
0.103120 0.007958 -0.933043
0.104845 0.007955 -0.932693
0.108338 0.007953 -0.932399
0.110146 0.007957 -0.932794
0.120745 0.008197 -0.961402
0.122371 0.008185 -0.959889
0.126017 0.008186 -0.960021
0.129556 0.008180 -0.959342
0.132955 0.008167 -0.957684
0.134688 0.008162 -0.957122
0.136484 0.008161 -0.957033
0.140013 0.008156 -0.956408
0.143567 0.008153 -0.955988
0.147257 0.008157 -0.956485
0.149121 0.008160 -0.956846
0.150972 0.008163 -0.957116
0.154716 0.008169 -0.957904
0.156658 0.008176 -0.958713
0.159495 0.008229 -0.964996
0.160750 0.008247 -0.967086
0.161684 0.008248 -0.967205
0.163596 0.008252 -0.967704
0.165423 0.008252 -0.967690
0.167167 0.008248 -0.967193
0.168977 0.008247 -0.967084
0.170851 0.008249 -0.967346
0.172637 0.008247 -0.967101
0.174428 0.008246 -0.966892
0.176148 0.008241 -0.966288
0.177912 0.008238 -0.965945
0.179699 0.008236 -0.965726
0.185432 0.008248 -0.967075
0.187273 0.008248 -0.967145
0.188970 0.008242 -0.966458
0.190632 0.008235 -0.965613
0.192347 0.008231 -0.965046
0.194088 0.008227 -0.964627
0.195947 0.008229 -0.964798
0.197795 0.008230 -0.964916
0.199560 0.008227 -0.964624
0.200399 0.008224 -0.964271
-0.033066 0.007804 -1.030591
-0.032094 0.007804 -1.030592
-0.031115 0.007803 -1.030363
-0.029160 0.007799 -1.029947
-0.017491 0.007795 -1.029324
-0.016510 0.007790 -1.028682
-0.015532 0.007786 -1.028193
-0.014557 0.007784 -1.027853
-0.013571 0.007774 -1.026576
-0.005332 0.007118 -0.938783
-0.001781 0.007097 -0.935992
0.001720 0.006952 -0.916579
0.008536 0.006863 -0.904648
0.015349 0.006851 -0.903130
0.017063 0.006854 -0.903506
0.017968 0.006873 -0.906099
0.018911 0.006905 -0.910377
0.066791 0.006875 -0.906305
0.067704 0.006881 -0.907071
0.068561 0.006881 -0.907071
0.070248 0.006878 -0.906704
0.073687 0.006880 -0.906834
0.074614 0.006886 -0.907701
0.075474 0.006886 -0.907729
0.076318 0.006885 -0.907560
0.077190 0.006886 -0.907725
0.084386 0.006914 -0.911354
0.086595 0.006953 -0.916575
0.088452 0.006962 -0.917881
0.090429 0.006981 -0.920376
0.092566 0.007011 -0.924397
0.094943 0.007058 -0.930651
0.096645 0.007054 -0.930100
0.100055 0.007047 -0.929094
0.102035 0.007062 -0.931165
0.103979 0.007075 -0.932836
0.120727 0.007288 -0.961261
0.121538 0.007282 -0.960478
0.133839 0.007260 -0.957527
0.134703 0.007258 -0.957236
0.135600 0.007258 -0.957176
0.155812 0.007273 -0.959091
0.157028 0.007287 -0.961011
0.158221 0.007300 -0.962767
0.160702 0.007330 -0.966796
0.162745 0.007340 -0.968090
0.168140 0.007336 -0.967534
0.169055 0.007336 -0.967535
0.170004 0.007338 -0.967733
0.170922 0.007338 -0.967755
0.171858 0.007339 -0.967871
0.172802 0.007340 -0.968037
0.173736 0.007341 -0.968142
0.174685 0.007342 -0.968334
0.175626 0.007344 -0.968478
0.177586 0.007349 -0.969189
0.184856 0.007347 -0.968875
0.185768 0.007347 -0.968856
0.186638 0.007345 -0.968614
0.188257 0.007337 -0.967503
0.198680 0.007317 -0.964784
0.199507 0.007314 -0.964368
-0.033181 0.006855 -1.034197
-0.032142 0.006842 -1.032147
-0.030164 0.006835 -1.031087
-0.028205 0.006831 -1.030575
-0.026251 0.006829 -1.030196
-0.018468 0.006826 -1.029697
-0.016529 0.006827 -1.029920
-0.014585 0.006826 -1.029821
-0.006225 0.006236 -0.939668
-0.004444 0.006227 -0.938305
-0.002667 0.006218 -0.936932
-0.001782 0.006215 -0.936455
-0.000895 0.006204 -0.934719
0.002579 0.006071 -0.914360
0.004296 0.006055 -0.911977
0.007694 0.006017 -0.906207
0.009390 0.006006 -0.904515
0.011091 0.006002 -0.903875
0.014501 0.005999 -0.903423
0.015355 0.005999 -0.903468
0.016210 0.006000 -0.903535
0.017079 0.006005 -0.904328
0.018017 0.006033 -0.908616
0.018944 0.006055 -0.911959
0.019802 0.006054 -0.911792
0.021488 0.006044 -0.910225
0.023166 0.006032 -0.908527
0.024850 0.006025 -0.907317
0.044992 0.005967 -0.898511
0.058538 0.005963 -0.897849
0.060306 0.005970 -0.898910
0.062140 0.005983 -0.900895
0.064083 0.006005 -0.904336
0.066044 0.006028 -0.907842
0.067752 0.006028 -0.907723
0.069421 0.006024 -0.907098
0.071131 0.006023 -0.907036
0.072869 0.006025 -0.907332
0.074619 0.006028 -0.907759
0.076349 0.006029 -0.907934
0.078107 0.006032 -0.908416
0.079865 0.006036 -0.908894
0.081667 0.006042 -0.909837
0.083523 0.006052 -0.911340
0.085522 0.006071 -0.914333
0.087460 0.006086 -0.916561
0.089369 0.006098 -0.918393
0.090326 0.006104 -0.919315
0.091397 0.006117 -0.921373
0.093736 0.006157 -0.927372
0.094932 0.006178 -0.930545
0.095811 0.006178 -0.930546
0.097492 0.006173 -0.929791
0.099175 0.006168 -0.929077
0.100933 0.006168 -0.929090
0.103037 0.006189 -0.932281
0.104846 0.006192 -0.932704
0.106574 0.006190 -0.932395
0.110139 0.006192 -0.932732
0.120707 0.006378 -0.961094
0.122414 0.006373 -0.960226
0.124177 0.006370 -0.959820
0.131254 0.006361 -0.958491
0.133012 0.006359 -0.958095
0.134768 0.006356 -0.957701
0.135682 0.006357 -0.957767
0.136628 0.006359 -0.958052
0.138366 0.006355 -0.957542
0.140143 0.006354 -0.957314
0.141988 0.006356 -0.957550
0.143890 0.006360 -0.958169
0.145751 0.006362 -0.958503
0.149423 0.006364 -0.958812
0.153211 0.006371 -0.959846
0.155101 0.006374 -0.960319
0.157247 0.006388 -0.962367
0.159538 0.006407 -0.965259
0.161610 0.006416 -0.966758
0.163709 0.006427 -0.968384
0.165726 0.006434 -0.969490
0.167571 0.006435 -0.969562
0.175399 0.006453 -0.972346
0.177379 0.006459 -0.973134
0.179010 0.006451 -0.971987
0.180800 0.006449 -0.971727
0.182473 0.006444 -0.970841
0.184123 0.006437 -0.969854
0.185854 0.006434 -0.969306
0.187550 0.006429 -0.968592
0.189188 0.006423 -0.967588
0.190904 0.006419 -0.967007
0.194280 0.006410 -0.965594
0.197826 0.006406 -0.965070
0.198622 0.006403 -0.964500
-0.033252 0.005891 -1.036450
-0.031167 0.005867 -1.032105
-0.029194 0.005862 -1.031186
-0.005335 0.005346 -0.939222
-0.001782 0.005332 -0.936790
0.001718 0.005213 -0.915491
0.015361 0.005147 -0.903835
0.017112 0.005160 -0.906127
0.018083 0.005193 -0.911980
0.018964 0.005198 -0.912924
0.061236 0.005126 -0.900107
0.063200 0.005148 -0.903923
0.064234 0.005162 -0.906490
0.065216 0.005172 -0.908261
0.066933 0.005172 -0.908262
0.090294 0.005233 -0.918982
0.091248 0.005238 -0.919851
0.092404 0.005254 -0.922759
0.094930 0.005298 -0.930525
0.096676 0.005297 -0.930404
0.101810 0.005290 -0.929084
0.103927 0.005308 -0.932360
0.121571 0.005468 -0.960746
0.135799 0.005456 -0.958601
0.137581 0.005455 -0.958392
0.138437 0.005453 -0.958043
0.139343 0.005453 -0.958044
0.140255 0.005453 -0.958091
0.141214 0.005456 -0.958458
0.143132 0.005460 -0.959177
0.162536 0.005503 -0.966835
0.164893 0.005521 -0.969987
0.165999 0.005527 -0.971106
0.167135 0.005534 -0.972393
0.174871 0.005547 -0.974556
0.175746 0.005545 -0.974295
0.176637 0.005544 -0.974129
0.178341 0.005540 -0.973370
0.198538 0.005488 -0.964086
-0.033354 0.004928 -1.039664
-0.032271 0.004913 -1.036355
-0.031202 0.004898 -1.033273
-0.030191 0.004892 -1.032013
-0.028219 0.004888 -1.031097
-0.024308 0.004884 -1.030201
-0.020411 0.004881 -1.029674
-0.016527 0.004882 -1.029777
-0.004445 0.004455 -0.938597
0.002577 0.004338 -0.913668
0.005997 0.004314 -0.908530
0.007696 0.004305 -0.906430
0.009398 0.004299 -0.905359
0.012804 0.004294 -0.904211
0.014513 0.004294 -0.904201
0.018133 0.004343 -0.914559
0.019845 0.004339 -0.913793
0.021517 0.004328 -0.911438
0.023190 0.004319 -0.909487
0.026543 0.004305 -0.906561
0.029889 0.004294 -0.904097
0.033245 0.004286 -0.902406
0.036606 0.004280 -0.901147
0.039986 0.004277 -0.900545
0.043362 0.004274 -0.899943
0.045046 0.004273 -0.899602
0.046737 0.004272 -0.899421
0.050095 0.004268 -0.898643
0.053448 0.004265 -0.897877
0.056871 0.004267 -0.898335
0.060382 0.004275 -0.900062
0.061319 0.004281 -0.901345
0.062346 0.004293 -0.903920
0.064306 0.004310 -0.907518
0.066116 0.004316 -0.908846
0.067790 0.004313 -0.908241
0.071173 0.004310 -0.907581
0.074631 0.004312 -0.907912
0.078122 0.004315 -0.908599
0.081722 0.004324 -0.910451
0.083604 0.004332 -0.912234
0.085524 0.004342 -0.914357
0.089249 0.004355 -0.917147
0.091230 0.004367 -0.919668
0.092305 0.004377 -0.921759
0.093646 0.004399 -0.926464
0.094921 0.004418 -0.930441
0.095831 0.004419 -0.930735
0.097537 0.004417 -0.930224
0.100907 0.004410 -0.928851
0.101793 0.004411 -0.928921
0.102789 0.004416 -0.930011
0.103876 0.004425 -0.931901
0.104843 0.004428 -0.932672
0.106616 0.004429 -0.932764
0.108384 0.004429 -0.932802
0.110183 0.004430 -0.933106
0.111999 0.004432 -0.933546
0.120696 0.004561 -0.961010
0.122507 0.004561 -0.960971
0.124344 0.004562 -0.961127
0.126109 0.004560 -0.960729
0.129557 0.004554 -0.959356
0.133131 0.004552 -0.958967
0.134954 0.004552 -0.959042
0.136795 0.004553 -0.959243
0.138646 0.004554 -0.959506
0.140517 0.004556 -0.959903
0.142386 0.004558 -0.960274
0.144252 0.004560 -0.960614
0.147908 0.004561 -0.960773
0.151648 0.004564 -0.961462
0.153485 0.004564 -0.961586
0.155485 0.004570 -0.962729
0.157728 0.004582 -0.965354
0.159701 0.004586 -0.966260
0.161599 0.004589 -0.966689
0.162530 0.004589 -0.966795
0.163708 0.004596 -0.968378
0.165072 0.004609 -0.971054
0.166615 0.004626 -0.974761
0.168782 0.004635 -0.976664
0.170664 0.004636 -0.976872
0.172421 0.004634 -0.976358
0.174148 0.004631 -0.975681
0.175845 0.004627 -0.974851
0.177561 0.004624 -0.974147
0.179252 0.004620 -0.973320
0.182634 0.004612 -0.971710
0.185961 0.004604 -0.969874
0.189284 0.004596 -0.968086
0.192642 0.004588 -0.966546
0.194377 0.004586 -0.966080
0.196135 0.004585 -0.965738
-0.033356 0.003947 -1.039745
-0.032334 0.003942 -1.038400
-0.031271 0.003932 -1.035574
-0.030214 0.003921 -1.032814
-0.029213 0.003918 -1.031863
0.001716 0.003479 -0.914800
0.015379 0.003442 -0.904896
0.019016 0.003481 -0.915472
0.061377 0.003432 -0.902218
0.063354 0.003446 -0.906156
0.090115 0.003488 -0.917134
0.092293 0.003505 -0.921635
0.094834 0.003535 -0.929568
0.096724 0.003540 -0.930872
0.101783 0.003532 -0.928831
0.103733 0.003539 -0.930599
0.104812 0.003545 -0.932396
0.105742 0.003547 -0.932831
0.107526 0.003548 -0.933014
0.111091 0.003549 -0.933329
0.112028 0.003551 -0.933796
0.121637 0.003654 -0.961269
0.152753 0.003660 -0.962720
0.153732 0.003661 -0.963158
0.154914 0.003668 -0.964871
0.156973 0.003673 -0.966337
0.158874 0.003675 -0.966794
0.162620 0.003677 -0.967342
0.163892 0.003685 -0.969483
0.165684 0.003705 -0.974706
0.168001 0.003715 -0.977502
0.195311 0.003673 -0.966187
0.196249 0.003674 -0.966310
-0.032357 0.002964 -1.039143
-0.031341 0.002961 -1.037932
-0.030285 0.002953 -1.035279
-0.029237 0.002946 -1.032718
-0.028237 0.002943 -1.031767
-0.026275 0.002942 -1.031127
-0.024316 0.002940 -1.030536
-0.022360 0.002938 -1.029974
-0.018466 0.002937 -1.029560
-0.014588 0.002939 -1.030064
0.002576 0.002609 -0.913104
0.004289 0.002602 -0.910455
0.005997 0.002596 -0.908466
0.007703 0.002592 -0.907204
0.009409 0.002590 -0.906392
0.011116 0.002589 -0.905938
0.012815 0.002586 -0.905009
0.016362 0.002606 -0.912134
0.017324 0.002622 -0.917535
0.018179 0.002620 -0.916938
0.019872 0.002615 -0.915088
0.021544 0.002608 -0.912632
0.041724 0.002576 -0.901321
0.043427 0.002576 -0.901325
0.045144 0.002577 -0.901583
0.046835 0.002576 -0.901320
0.048532 0.002576 -0.901205
0.051865 0.002572 -0.899893
0.058652 0.002571 -0.899619
0.060441 0.002575 -0.900959
0.062378 0.002585 -0.904399
0.064387 0.002597 -0.908681
0.066161 0.002599 -0.909475
0.067849 0.002598 -0.909047
0.069516 0.002596 -0.908366
0.083552 0.002605 -0.911659
0.087262 0.002613 -0.914455
0.089109 0.002617 -0.915687
0.091095 0.002624 -0.918287
0.097580 0.002659 -0.930637
0.099209 0.002655 -0.929404
0.100880 0.002653 -0.928600
0.102668 0.002654 -0.928895
0.103590 0.002655 -0.929300
0.104639 0.002659 -0.930834
0.106622 0.002665 -0.932814
0.108429 0.002666 -0.933200
0.110215 0.002667 -0.933386
0.120804 0.002747 -0.961880
0.122658 0.002748 -0.962166
0.124372 0.002746 -0.961349
0.126095 0.002744 -0.960620
0.127872 0.002743 -0.960330
0.131438 0.002741 -0.959851
0.133275 0.002742 -0.960022
0.135170 0.002744 -0.960598
0.137203 0.002748 -0.962145
0.139060 0.002749 -0.962410
0.140901 0.002749 -0.962564
0.142672 0.002748 -0.962229
0.146333 0.002749 -0.962386
0.148220 0.002750 -0.962826
0.150116 0.002751 -0.963325
0.152079 0.002754 -0.964233
0.154254 0.002760 -0.966469
0.155413 0.002765 -0.968019
0.156386 0.002766 -0.968384
0.158128 0.002764 -0.967833
0.159881 0.002763 -0.967365
0.161709 0.002763 -0.967359
0.162720 0.002765 -0.967940
0.163906 0.002769 -0.969566
0.165918 0.002788 -0.976100
0.167106 0.002792 -0.977672
0.169004 0.002793 -0.977966
0.170778 0.002792 -0.977534
0.174308 0.002789 -0.976592
0.177696 0.002784 -0.974899
0.184465 0.002775 -0.971676
0.186079 0.002772 -0.970497
0.187800 0.002770 -0.969899
0.189429 0.002767 -0.968842
0.191047 0.002764 -0.967743
0.192778 0.002763 -0.967239
0.194566 0.002762 -0.967032
0.196563 0.002765 -0.967874
-0.035351 0.001986 -1.040727
-0.033353 0.001984 -1.039648
-0.031362 0.001982 -1.038629
-0.030338 0.001979 -1.037103
-0.029314 0.001976 -1.035478
-0.027276 0.001970 -1.032223
-0.026282 0.001969 -1.031417
-0.025296 0.001968 -1.030889
-0.011677 0.001967 -1.030347
0.001715 0.001748 -0.914094
0.003433 0.001743 -0.911506
0.004289 0.001741 -0.910466
0.005146 0.001740 -0.909880
0.013687 0.001733 -0.906123
0.016464 0.001755 -0.917883
0.017341 0.001756 -0.918432
0.019045 0.001753 -0.916922
0.042619 0.001725 -0.902246
0.043471 0.001725 -0.902246
0.044339 0.001726 -0.902564
0.045198 0.001726 -0.902670
0.046048 0.001726 -0.902626
0.065310 0.001739 -0.909590
0.067020 0.001739 -0.909464
0.096734 0.001780 -0.930962
0.103573 0.001776 -0.929146
0.120903 0.001839 -0.962682
0.121791 0.001839 -0.962509
0.147460 0.001842 -0.963821
0.148371 0.001842 -0.963823
0.149376 0.001843 -0.964438
0.151546 0.001847 -0.966679
0.152711 0.001850 -0.968299
0.153745 0.001852 -0.969053
0.154751 0.001853 -0.969630
0.155668 0.001853 -0.969631
0.160881 0.001850 -0.967884
0.161796 0.001850 -0.967886
0.162980 0.001853 -0.969511
0.164100 0.001855 -0.970732
0.166067 0.001867 -0.976987
0.168190 0.001870 -0.978616
0.193747 0.001849 -0.967517
0.194662 0.001849 -0.967519
0.195877 0.001852 -0.969023
-0.035345 0.001004 -1.040551
-0.034346 0.001003 -1.040019
-0.032353 0.001002 -1.039024
-0.030370 0.001002 -1.038203
-0.028380 0.001000 -1.037055
-0.027384 0.001000 -1.036364
-0.026342 0.000997 -1.033785
-0.025311 0.000995 -1.031480
-0.024322 0.000995 -1.030791
-0.020426 0.000994 -1.030473
-0.016538 0.000994 -1.030458
-0.012650 0.000994 -1.030432
-0.011676 0.000994 -1.030272
0.001715 0.000883 -0.914059
0.002575 0.000882 -0.912903
0.004292 0.000881 -0.911152
0.006005 0.000879 -0.909741
0.009422 0.000877 -0.907679
0.011132 0.000877 -0.907221
0.012841 0.000876 -0.906827
0.013698 0.000876 -0.906827
0.016513 0.000890 -0.920651
0.017382 0.000890 -0.920651
0.018223 0.000888 -0.919143
0.019903 0.000886 -0.916538
0.023245 0.000881 -0.911666
0.026570 0.000877 -0.907507
0.029907 0.000874 -0.904634
0.033269 0.000873 -0.903071
0.036659 0.000872 -0.902478
0.040079 0.000872 -0.902678
0.041825 0.000873 -0.903536
0.043563 0.000874 -0.904181
0.045290 0.000874 -0.904538
0.046992 0.000874 -0.904395
0.048675 0.000874 -0.903905
0.050335 0.000873 -0.903008
0.051968 0.000871 -0.901706
0.053605 0.000870 -0.900553
0.056958 0.000870 -0.899737
0.058668 0.000870 -0.899876
0.060448 0.000871 -0.901070
0.062307 0.000873 -0.903360
0.064338 0.000877 -0.907984
0.065298 0.000879 -0.909416
0.066169 0.000879 -0.909578
0.067900 0.000879 -0.909745
0.071216 0.000878 -0.908137
0.074606 0.000877 -0.907599
0.078061 0.000877 -0.907872
0.081562 0.000878 -0.908653
0.085247 0.000881 -0.911352
0.088947 0.000883 -0.913994
0.090756 0.000884 -0.914827
0.096789 0.000900 -0.931502
0.097669 0.000900 -0.931503
0.099296 0.000899 -0.930232
0.100958 0.000898 -0.929326
0.102685 0.000898 -0.929054
0.104480 0.000898 -0.929404
0.108464 0.000902 -0.933507
0.110335 0.000903 -0.934412
0.120919 0.000930 -0.962808
0.122606 0.000929 -0.961758
0.126045 0.000927 -0.960238
0.129643 0.000927 -0.959998
0.133280 0.000927 -0.960053
0.135225 0.000928 -0.960993
0.137315 0.000930 -0.962940
0.139285 0.000931 -0.963987
0.141147 0.000931 -0.964263
0.144879 0.000932 -0.964849
0.146752 0.000932 -0.965174
0.148711 0.000933 -0.966063
0.150838 0.000935 -0.968020
0.152083 0.000937 -0.970156
0.153066 0.000937 -0.970581
0.154887 0.000937 -0.970493
0.156657 0.000937 -0.970084
0.160207 0.000936 -0.969367
0.162060 0.000936 -0.969488
0.163093 0.000937 -0.970192
0.164486 0.000940 -0.973047
0.166313 0.000945 -0.978456
0.167298 0.000945 -0.978809
0.169157 0.000945 -0.978861
0.172629 0.000944 -0.977550
0.176116 0.000943 -0.976379
0.179566 0.000942 -0.975049
0.182898 0.000940 -0.973132
0.186315 0.000938 -0.971744
0.187782 0.000937 -0.969807
0.189470 0.000936 -0.969053
0.191197 0.000935 -0.968514
0.192972 0.000935 -0.968225
0.195095 0.000937 -0.969699
-0.035342 0.000022 -1.040471
-0.033339 0.000022 -1.039207
-0.027404 0.000022 -1.037129
-0.026404 0.000022 -1.036260
-0.025367 0.000022 -1.033819
-0.011676 0.000021 -1.030266
0.001715 0.000019 -0.914359
0.016561 0.000019 -0.923405
0.017409 0.000019 -0.922061
0.019090 0.000019 -0.919123
0.041007 0.000019 -0.904347
0.041906 0.000019 -0.905321
0.042793 0.000019 -0.905992
0.043657 0.000019 -0.906151
0.044532 0.000019 -0.906551
0.045395 0.000019 -0.906673
0.046252 0.000019 -0.906674
0.049597 0.000019 -0.905145
0.063225 0.000019 -0.904285
0.065235 0.000019 -0.908535
0.067032 0.000019 -0.909625
0.091773 0.000019 -0.916367
0.094202 0.000019 -0.923285
0.096823 0.000019 -0.931831
0.098537 0.000019 -0.931378
0.100186 0.000019 -0.930333
0.109446 0.000019 -0.934369
0.119135 0.000020 -0.963101
0.120045 0.000020 -0.963102
0.121735 0.000020 -0.962060
0.138366 0.000020 -0.963934
0.140394 0.000020 -0.965370
0.146022 0.000020 -0.966401
0.146987 0.000020 -0.966745
0.148123 0.000020 -0.968219
0.150166 0.000020 -0.969606
0.151242 0.000020 -0.970647
0.152193 0.000020 -0.970864
0.161249 0.000020 -0.970132
0.162166 0.000020 -0.970134
0.163374 0.000020 -0.971883
0.164651 0.000020 -0.974032
0.166362 0.000020 -0.978744
0.168308 0.000020 -0.979310
0.188778 0.000020 -0.970221
0.189459 0.000020 -0.968996
0.190372 0.000020 -0.968980
0.191231 0.000020 -0.968685
0.192102 0.000020 -0.968459
0.194454 0.000020 -0.971094
0.195487 0.000020 -0.971675
0.196411 0.000020 -0.971702
0.198318 0.000020 -0.972051
-0.035342 -0.000960 -1.040463
-0.034335 -0.000960 -1.039699
-0.032342 -0.000959 -1.038646
-0.030360 -0.000958 -1.037859
-0.028394 -0.000958 -1.037561
-0.026423 -0.000957 -1.037023
-0.024388 -0.000954 -1.033628
-0.022398 -0.000952 -1.031784
-0.020440 -0.000952 -1.031177
-0.018488 -0.000952 -1.030822
-0.014596 -0.000951 -1.030578
-0.012648 -0.000951 -1.030334
-0.004450 -0.000868 -0.939628
0.001717 -0.000846 -0.915428
0.002579 -0.000845 -0.914341
0.004300 -0.000844 -0.912880
0.007726 -0.000841 -0.909940
0.009437 -0.000841 -0.909135
0.016587 -0.000855 -0.924884
0.017452 -0.000855 -0.924414
0.018293 -0.000853 -0.922765
0.019960 -0.000850 -0.919190
0.021614 -0.000847 -0.915616
0.023279 -0.000844 -0.913032
0.024935 -0.000842 -0.910476
0.031604 -0.000836 -0.904289
0.038441 -0.000836 -0.904283
0.040209 -0.000838 -0.905634
0.041941 -0.000838 -0.906093
0.043663 -0.000838 -0.906294
0.045410 -0.000839 -0.906980
0.047145 -0.000839 -0.907386
0.048856 -0.000839 -0.907304
0.049702 -0.000839 -0.907101
0.050502 -0.000838 -0.906059
0.052080 -0.000836 -0.903685
0.053670 -0.000834 -0.901665
0.055302 -0.000833 -0.900467
0.058648 -0.000832 -0.899557
0.062193 -0.000834 -0.901682
0.063104 -0.000835 -0.902534
0.064109 -0.000837 -0.904698
0.066093 -0.000840 -0.908521
0.067872 -0.000841 -0.909357
0.069552 -0.000841 -0.908839
0.071221 -0.000840 -0.908206
0.072885 -0.000839 -0.907532
0.090629 -0.000845 -0.913526
0.091572 -0.000846 -0.914329
0.092682 -0.000848 -0.916794
0.095413 -0.000857 -0.926623
0.096830 -0.000862 -0.931903
0.097739 -0.000862 -0.932179
0.098624 -0.000862 -0.932214
0.099437 -0.000862 -0.931569
0.101084 -0.000861 -0.930506
0.102774 -0.000860 -0.929874
0.104532 -0.000860 -0.929875
0.106408 -0.000861 -0.930916
0.108402 -0.000863 -0.932958
0.109443 -0.000864 -0.934336
0.119139 -0.000890 -0.963131
0.120887 -0.000890 -0.962551
0.122583 -0.000889 -0.961570
0.124314 -0.000888 -0.960892
0.126075 -0.000888 -0.960470
0.127881 -0.000888 -0.960401
0.129695 -0.000888 -0.960388
0.131468 -0.000888 -0.960077
0.135108 -0.000888 -0.960149
0.137242 -0.000890 -0.962419
0.138460 -0.000892 -0.964599
0.139474 -0.000892 -0.965315
0.141417 -0.000893 -0.966132
0.143278 -0.000893 -0.966371
0.145230 -0.000894 -0.967221
0.146211 -0.000895 -0.967669
0.147429 -0.000897 -0.969688
0.148633 -0.000898 -0.971599
0.149603 -0.000899 -0.971937
0.151484 -0.000899 -0.972222
0.153267 -0.000899 -0.971868
0.155091 -0.000898 -0.971784
0.158699 -0.000898 -0.971375
0.160528 -0.000898 -0.971333
0.162445 -0.000899 -0.971822
0.165150 -0.000903 -0.977028
0.166480 -0.000906 -0.979451
0.167436 -0.000906 -0.979629
0.169281 -0.000906 -0.979591
0.171032 -0.000905 -0.979004
0.188130 -0.000899 -0.971630
0.189752 -0.000898 -0.970514
0.191546 -0.000897 -0.970303
0.193656 -0.000899 -0.971707
0.195496 -0.000899 -0.971719
0.197308 -0.000899 -0.971596
0.198237 -0.000899 -0.971647
-0.035334 -0.001942 -1.040224
-0.033329 -0.001939 -1.038870
-0.023410 -0.001930 -1.033522
-0.022407 -0.001927 -1.032206
-0.021423 -0.001926 -1.031681
-0.005352 -0.001761 -0.942293
-0.003558 -0.001754 -0.938434
-0.001783 -0.001752 -0.937315
0.001720 -0.001714 -0.916585
0.008594 -0.001703 -0.910826
0.014853 -0.001731 -0.925697
0.015730 -0.001731 -0.925860
0.017478 -0.001731 -0.925810
0.019165 -0.001725 -0.922740
0.022465 -0.001711 -0.915043
0.049754 -0.001699 -0.908058
0.063035 -0.001687 -0.901529
0.068669 -0.001699 -0.908523
0.070368 -0.001699 -0.908279
0.091476 -0.001709 -0.913359
0.092434 -0.001710 -0.914310
0.096592 -0.001739 -0.929585
0.098720 -0.001745 -0.933140
0.100370 -0.001743 -0.932061
0.109439 -0.001747 -0.934302
0.118233 -0.001801 -0.963168
0.138408 -0.001803 -0.964232
0.140648 -0.001808 -0.967143
0.142541 -0.001809 -0.967586
0.146811 -0.001817 -0.971691
0.147897 -0.001819 -0.972810
0.148816 -0.001819 -0.972811
0.161728 -0.001819 -0.973051
0.162882 -0.001822 -0.974471
0.164222 -0.001827 -0.976998
0.165591 -0.001832 -0.979669
0.166592 -0.001832 -0.980119
0.168423 -0.001832 -0.979990
0.190815 -0.001816 -0.971265
0.191806 -0.001817 -0.971640
0.192844 -0.001818 -0.972248
0.198183 -0.001817 -0.971379
-0.034325 -0.002921 -1.039389
-0.032327 -0.002918 -1.038176
-0.028389 -0.002916 -1.037395
-0.024465 -0.002915 -1.036961
-0.023446 -0.002910 -1.035128
-0.022447 -0.002907 -1.034034
-0.021444 -0.002903 -1.032703
-0.020455 -0.002901 -1.031955
-0.018497 -0.002899 -1.031300
-0.016544 -0.002898 -1.030828
-0.006245 -0.002653 -0.942808
-0.004452 -0.002646 -0.940214
-0.003557 -0.002641 -0.938315
-0.002670 -0.002639 -0.937731
-0.000897 -0.002637 -0.936782
0.001721 -0.002583 -0.917415
0.002585 -0.002581 -0.916562
0.004311 -0.002577 -0.915222
0.006033 -0.002574 -0.914024
0.007748 -0.002570 -0.912602
0.008610 -0.002570 -0.912602
0.009509 -0.002579 -0.916145
0.013963 -0.002603 -0.924651
0.014855 -0.002606 -0.925840
0.016626 -0.002610 -0.927049
0.018352 -0.002606 -0.925781
0.023315 -0.002575 -0.914458
0.026617 -0.002560 -0.909135
0.029938 -0.002550 -0.905602
0.031624 -0.002548 -0.904851
0.033320 -0.002547 -0.904468
0.036775 -0.002550 -0.905373
0.040235 -0.002552 -0.906227
0.043702 -0.002555 -0.907115
0.045448 -0.002556 -0.907749
0.047170 -0.002557 -0.907866
0.048895 -0.002557 -0.908041
0.050618 -0.002557 -0.908158
0.052231 -0.002552 -0.906339
0.053734 -0.002543 -0.902760
0.055312 -0.002537 -0.900638
0.056945 -0.002534 -0.899524
0.060333 -0.002533 -0.899330
0.062061 -0.002534 -0.899741
0.065742 -0.002545 -0.903632
0.067712 -0.002555 -0.907185
0.068653 -0.002558 -0.908301
0.069508 -0.002558 -0.908261
0.071183 -0.002556 -0.907711
0.072856 -0.002555 -0.907175
0.074533 -0.002554 -0.906698
0.077920 -0.002552 -0.906212
0.081375 -0.002553 -0.906530
0.084908 -0.002556 -0.907678
0.088526 -0.002562 -0.909603
0.090426 -0.002567 -0.911448
0.092338 -0.002572 -0.913339
0.093434 -0.002579 -0.915656
0.096469 -0.002614 -0.928378
0.097835 -0.002627 -0.933105
0.099672 -0.002629 -0.933797
0.101347 -0.002627 -0.932964
0.104748 -0.002624 -0.931820
0.106546 -0.002625 -0.932146
0.108481 -0.002629 -0.933649
0.109508 -0.002632 -0.934898
0.117370 -0.002712 -0.963561
0.119130 -0.002711 -0.963057
0.122664 -0.002708 -0.962217
0.126267 -0.002708 -0.961950
0.128106 -0.002708 -0.962111
0.129879 -0.002707 -0.961774
0.133330 -0.002704 -0.960420
0.135153 -0.002704 -0.960476
0.137075 -0.002706 -0.961230
0.139727 -0.002722 -0.967089
0.141036 -0.002730 -0.969845
0.141973 -0.002730 -0.969984
0.146173 -0.002740 -0.973585
0.148012 -0.002740 -0.973580
0.149862 -0.002740 -0.973639
0.153464 -0.002739 -0.973137
0.157136 -0.002739 -0.973091
0.160915 -0.002741 -0.973708
0.162076 -0.002745 -0.975172
0.163586 -0.002755 -0.978740
0.164880 -0.002761 -0.980967
0.165819 -0.002761 -0.981037
0.167593 -0.002760 -0.980560
0.169360 -0.002759 -0.980051
0.172933 -0.002756 -0.979293
0.176433 -0.002753 -0.978156
0.179769 -0.002748 -0.976166
0.183162 -0.002743 -0.974558
0.186488 -0.002738 -0.972660
0.188210 -0.002737 -0.972049
0.190022 -0.002736 -0.971916
0.191939 -0.002737 -0.972320
0.193750 -0.002737 -0.972186
0.197237 -0.002734 -0.971237
0.198135 -0.002734 -0.971141
-0.035299 -0.003902 -1.039182
-0.033322 -0.003900 -1.038670
-0.023487 -0.003894 -1.036961
-0.021479 -0.003884 -1.034428
-0.020468 -0.003877 -1.032596
-0.019481 -0.003875 -1.031893
-0.017527 -0.003873 -1.031459
-0.005348 -0.003540 -0.941534
-0.003557 -0.003528 -0.938276
-0.001783 -0.003524 -0.937324
0.001723 -0.003454 -0.918406
0.005178 -0.003444 -0.915610
0.006040 -0.003442 -0.915126
0.006904 -0.003442 -0.915126
0.007794 -0.003453 -0.918167
0.008690 -0.003464 -0.921226
0.009574 -0.003469 -0.922569
0.013962 -0.003477 -0.924621
0.014855 -0.003481 -0.925809
0.015751 -0.003486 -0.927084
0.019210 -0.003478 -0.924955
0.020866 -0.003463 -0.920845
0.021671 -0.003453 -0.918051
0.022511 -0.003449 -0.916943
0.032483 -0.003404 -0.904965
0.063630 -0.003378 -0.897847
0.064660 -0.003388 -0.900405
0.065578 -0.003391 -0.901333
0.066533 -0.003396 -0.902755
0.069394 -0.003411 -0.906751
0.070270 -0.003412 -0.906999
0.071125 -0.003412 -0.906960
0.071982 -0.003412 -0.906960
0.073646 -0.003410 -0.906327
0.091256 -0.003428 -0.911128
0.098827 -0.003513 -0.934157
0.100631 -0.003515 -0.934519
0.109576 -0.003518 -0.935488
0.118236 -0.003621 -0.963196
0.127330 -0.003621 -0.963135
0.129154 -0.003621 -0.963162
0.136154 -0.003614 -0.961140
0.138476 -0.003627 -0.964710
0.141395 -0.003656 -0.972346
0.142460 -0.003659 -0.973358
0.143466 -0.003662 -0.973951
0.145307 -0.003662 -0.973952
0.147269 -0.003665 -0.974767
0.148167 -0.003664 -0.974609
0.149050 -0.003663 -0.974361
0.162649 -0.003679 -0.978669
0.164033 -0.003690 -0.981453
0.164966 -0.003690 -0.981487
0.187402 -0.003658 -0.972633
0.188322 -0.003658 -0.972635
0.189296 -0.003659 -0.972920
0.198090 -0.003651 -0.970917
-0.035283 -0.004880 -1.038722
-0.034313 -0.004882 -1.039017
-0.032323 -0.004877 -1.038026
-0.030342 -0.004874 -1.037227
-0.026422 -0.004872 -1.036971
-0.024467 -0.004873 -1.037044
-0.022514 -0.004873 -1.037169
-0.021531 -0.004872 -1.036945
-0.020513 -0.004863 -1.034927
-0.018511 -0.004850 -1.032089
-0.017530 -0.004848 -1.031681
-0.016555 -0.004847 -1.031542
-0.014603 -0.004845 -1.031116
-0.006238 -0.004430 -0.941688
-0.004452 -0.004423 -0.940044
-0.002670 -0.004412 -0.937783
-0.000897 -0.004407 -0.936732
0.001725 -0.004327 -0.919335
0.002590 -0.004322 -0.918379
0.004321 -0.004317 -0.917344
0.006059 -0.004320 -0.918011
0.007828 -0.004340 -0.922122
0.009579 -0.004344 -0.923061
0.014841 -0.004353 -0.924913
0.015741 -0.004360 -0.926504
0.016626 -0.004362 -0.927052
0.018371 -0.004361 -0.926739
0.019232 -0.004358 -0.926046
0.020063 -0.004348 -0.923998
0.021735 -0.004334 -0.920817
0.023355 -0.004312 -0.916074
0.025013 -0.004299 -0.913363
0.026647 -0.004284 -0.910158
0.028290 -0.004272 -0.907656
0.029965 -0.004267 -0.906415
0.031653 -0.004263 -0.905710
0.032503 -0.004263 -0.905521
0.033363 -0.004263 -0.905643
0.035101 -0.004266 -0.906354
0.038553 -0.004269 -0.906962
0.040285 -0.004271 -0.907365
0.041999 -0.004271 -0.907361
0.045466 -0.004275 -0.908113
0.047211 -0.004277 -0.908660
0.048943 -0.004279 -0.908944
0.050639 -0.004277 -0.908545
0.052309 -0.004273 -0.907720
0.053795 -0.004255 -0.903808
0.055302 -0.004239 -0.900466
0.056907 -0.004232 -0.898909
0.058560 -0.004229 -0.898190
0.060234 -0.004227 -0.897829
0.063594 -0.004225 -0.897323
0.064478 -0.004227 -0.897834
0.065523 -0.004240 -0.900578
0.067226 -0.004240 -0.900578
0.068123 -0.004243 -0.901184
0.069134 -0.004253 -0.903296
0.070987 -0.004261 -0.905178
0.072728 -0.004263 -0.905560
0.074431 -0.004263 -0.905440
0.076126 -0.004262 -0.905235
0.090206 -0.004280 -0.909201
0.098907 -0.004400 -0.934930
0.099863 -0.004403 -0.935612
0.101600 -0.004402 -0.935317
0.103343 -0.004401 -0.935091
0.106848 -0.004400 -0.934821
0.108687 -0.004403 -0.935448
0.117295 -0.004530 -0.962932
0.119066 -0.004529 -0.962537
0.120832 -0.004527 -0.962107
0.124547 -0.004529 -0.962720
0.126422 -0.004532 -0.963151
0.127456 -0.004536 -0.964102
0.128368 -0.004536 -0.964103
0.130155 -0.004535 -0.963845
0.131903 -0.004532 -0.963296
0.135381 -0.004527 -0.962121
0.136258 -0.004526 -0.961888
0.137378 -0.004533 -0.963389
0.138691 -0.004546 -0.966225
0.140467 -0.004574 -0.972279
0.141723 -0.004585 -0.974633
0.142805 -0.004590 -0.975745
0.144620 -0.004589 -0.975547
0.146386 -0.004587 -0.975024
0.148221 -0.004587 -0.974968
0.150047 -0.004586 -0.974862
0.151860 -0.004586 -0.974667
0.155510 -0.004585 -0.974450
0.157337 -0.004584 -0.974354
0.159303 -0.004588 -0.975124
0.162070 -0.004614 -0.980789
0.163250 -0.004621 -0.982331
0.164178 -0.004621 -0.982333
0.165963 -0.004619 -0.981902
0.167731 -0.004617 -0.981381
0.171273 -0.004613 -0.980402
0.174817 -0.004608 -0.979479
0.178345 -0.004604 -0.978508
0.180010 -0.004599 -0.977493
0.181595 -0.004593 -0.976056
0.183263 -0.004588 -0.975103
0.185053 -0.004587 -0.974819
0.186861 -0.004586 -0.974631
0.188627 -0.004584 -0.974231
0.190419 -0.004583 -0.973971
0.192108 -0.004580 -0.973190
0.195445 -0.004572 -0.971462
0.197183 -0.004569 -0.970971
0.198045 -0.004568 -0.970694
-0.035268 -0.005858 -1.038263
-0.033326 -0.005861 -1.038786
-0.021538 -0.005853 -1.037280
-0.020564 -0.005854 -1.037514
-0.019561 -0.005847 -1.036184
-0.017536 -0.005823 -1.032007
-0.016556 -0.005821 -1.031571
-0.015580 -0.005820 -1.031433
-0.014604 -0.005819 -1.031171
-0.013630 -0.005818 -1.031087
-0.005345 -0.005317 -0.941055
0.001731 -0.005216 -0.923005
0.002593 -0.005196 -0.919306
0.003459 -0.005191 -0.918522
0.005193 -0.005190 -0.918345
0.015717 -0.005228 -0.925098
0.019232 -0.005233 -0.926015
0.030824 -0.005124 -0.906514
0.031671 -0.005123 -0.906213
0.032528 -0.005123 -0.906231
0.048083 -0.005138 -0.908922
0.048961 -0.005140 -0.909290
0.049822 -0.005140 -0.909316
0.053077 -0.005123 -0.906164
0.060977 -0.005068 -0.896250
0.063494 -0.005066 -0.895900
0.064450 -0.005074 -0.897437
0.066356 -0.005090 -0.900318
0.068039 -0.005089 -0.900057
0.068973 -0.005095 -0.901169
0.069986 -0.005107 -0.903279
0.091047 -0.005139 -0.909009
0.099944 -0.005292 -0.936380
0.100884 -0.005295 -0.936900
0.118191 -0.005440 -0.962816
0.127455 -0.005447 -0.964093
0.129342 -0.005450 -0.964579
0.140710 -0.005503 -0.973989
0.141792 -0.005509 -0.975110
0.156624 -0.005512 -0.975669
0.157553 -0.005513 -0.975710
0.158794 -0.005524 -0.977698
0.161164 -0.005542 -0.980921
0.162311 -0.005549 -0.982270
0.163323 -0.005552 -0.982780
0.165155 -0.005551 -0.982623
0.182828 -0.005525 -0.977739
0.183752 -0.005525 -0.977740
0.184670 -0.005525 -0.977704
0.185533 -0.005523 -0.977377
0.186356 -0.005520 -0.976841
0.187227 -0.005518 -0.976566
0.188084 -0.005516 -0.976218
0.189638 -0.005508 -0.974700
0.197992 -0.005484 -0.970428
-0.034286 -0.006838 -1.038177
-0.032324 -0.006837 -1.038061
-0.028373 -0.006829 -1.036803
-0.024468 -0.006830 -1.037055
-0.022514 -0.006831 -1.037163
-0.020564 -0.006833 -1.037497
-0.018597 -0.006830 -1.036931
-0.016578 -0.006804 -1.032988
-0.015588 -0.006797 -1.031964
-0.014614 -0.006797 -1.031909
-0.006236 -0.006208 -0.941374
-0.004453 -0.006201 -0.940305
-0.002670 -0.006186 -0.937943
-0.000897 -0.006179 -0.936844
-0.000013 -0.006176 -0.936427
0.000870 -0.006166 -0.934806
0.003463 -0.006067 -0.919720
0.004332 -0.006067 -0.919721
0.006078 -0.006076 -0.920982
0.007831 -0.006085 -0.922482
0.009577 -0.006087 -0.922800
0.011316 -0.006085 -0.922447
0.013058 -0.006085 -0.922380
0.014805 -0.006086 -0.922648
0.016606 -0.006108 -0.925963
0.018370 -0.006113 -0.926670
0.026689 -0.006015 -0.911621
0.028315 -0.005994 -0.908492
0.029996 -0.005987 -0.907390
0.031694 -0.005984 -0.906880
0.033419 -0.005986 -0.907193
0.036864 -0.005989 -0.907602
0.040285 -0.005987 -0.907382
0.043726 -0.005989 -0.907608
0.047198 -0.005994 -0.908408
0.048941 -0.005997 -0.908900
0.049818 -0.006000 -0.909239
0.050647 -0.005996 -0.908690
0.052287 -0.005987 -0.907319
0.053773 -0.005962 -0.903423
0.055277 -0.005940 -0.900054
0.056864 -0.005928 -0.898228
0.060129 -0.005915 -0.896235
0.060893 -0.005907 -0.894994
0.061577 -0.005892 -0.892615
0.062328 -0.005883 -0.891260
0.065320 -0.005925 -0.897746
0.066335 -0.005940 -0.900032
0.067186 -0.005940 -0.900039
0.069027 -0.005952 -0.901877
